ply
format ascii 1.0
element vertex 910
property float x
property float y
property float z
end_header
-0.21774791181087494 0.09739604592323303 0.3230000138282776
-0.21556615829467773 0.09709451347589493 0.32200002670288086
-0.21339374780654907 0.09679297357797623 0.32100000977516174
-0.2118908166885376 0.09679297357797623 0.32100000977516174
-0.21038787066936493 0.09679297357797623 0.32100000977516174
-0.20888495445251465 0.09679297357797623 0.32100000977516174
-0.20802807807922363 0.09709451347589493 0.32200002670288086
-0.2071617990732193 0.09739604592323303 0.3230000138282776
-0.20628619194030762 0.09769757837057114 0.3240000009536743
-0.2054012268781662 0.09799911826848984 0.32500001788139343
-0.20450688898563385 0.09830065071582794 0.32600000500679016
-0.20360317826271057 0.09860219061374664 0.3270000219345093
-0.20269009470939636 0.09890372306108475 0.328000009059906
-0.20054112374782562 0.09860219061374664 0.3270000219345093
-0.19901008903980255 0.09860219061374664 0.3270000219345093
-0.19747908413410187 0.09860219061374664 0.3270000219345093
-0.0 0.0 0.0
-0.0 0.0 0.0
-0.19288599491119385 0.09860219061374664 0.3270000219345093
-0.19135496020317078 0.09860219061374664 0.3270000219345093
-0.1898239403963089 0.09860219061374664 0.3270000219345093
-0.18829290568828583 0.09860219061374664 0.3270000219345093
-0.18676187098026276 0.09860219061374664 0.3270000219345093
-0.18466439843177795 0.09830065071582794 0.32600000500679016
-0.18313804268836975 0.09830065071582794 0.32600000500679016
-0.18161170184612274 0.09830065071582794 0.32600000500679016
-0.18008536100387573 0.09830065071582794 0.32600000500679016
-0.1802021861076355 0.09920526295900345 0.3290000259876251
-0.0 0.0 0.0
-0.0 0.0 0.0
-0.17237892746925354 0.09739604592323303 0.3230000138282776
-0.17086663842201233 0.09739604592323303 0.3230000138282776
-0.1688300222158432 0.09709451347589493 0.32200002670288086
-0.1678420454263687 0.09739604592323303 0.3230000138282776
-0.1663297414779663 0.09739604592323303 0.3230000138282776
-0.1648174226284027 0.09739604592323303 0.3230000138282776
-0.1633051484823227 0.09739604592323303 0.3230000138282776
-0.16229373216629028 0.09769757837057114 0.3240000009536743
-0.16127298772335052 0.09799911826848984 0.32500001788139343
-0.16024287045001984 0.09830065071582794 0.32600000500679016
-0.1601771116256714 0.09920526295900345 0.3290000259876251
-0.16008324921131134 0.10010986775159836 0.3320000171661377
-0.15852880477905273 0.10010986775159836 0.3320000171661377
-0.15650156140327454 0.09980833530426025 0.33100003004074097
-0.15448367595672607 0.09950679540634155 0.33000001311302185
-0.15154825150966644 0.09860219061374664 0.3270000219345093
-0.15001723170280457 0.09860219061374664 0.3270000219345093
-0.1462157666683197 0.09709451347589493 0.32200002670288086
-0.14470814168453217 0.09709451347589493 0.32200002670288086
-0.14275580644607544 0.09679297357797623 0.32100000977516174
-0.14169292151927948 0.09709451347589493 0.32200002670288086
-0.14105600118637085 0.09769757837057114 0.3240000009536743
-0.14040037989616394 0.09830065071582794 0.32600000500679016
-0.13930003345012665 0.09860219061374664 0.3270000219345093
-0.0 0.0 0.0
-0.13790450990200043 0.09980833530426025 0.33100003004074097
-0.13594280183315277 0.09950679540634155 0.33000001311302185
-0.1360267847776413 0.10071294009685516 0.33400002121925354
-0.13406038284301758 0.10041140019893646 0.3330000042915344
-0.13170547783374786 0.09980833530426025 0.33100003004074097
-0.0 0.0 0.0
-0.12472058832645416 0.09679297357797623 0.32100000977516174
-0.12244993448257446 0.09618990123271942 0.3190000057220459
-0.12057719379663467 0.09588836878538132 0.31800001859664917
-0.1190883070230484 0.09588836878538132 0.31800001859664917
-0.11759942024946213 0.09588836878538132 0.31800001859664917
-0.11611052602529526 0.09588836878538132 0.31800001859664917
-0.11498207598924637 0.09618990123271942 0.3190000057220459
-0.11348851025104523 0.09618990123271942 0.3190000057220459
-0.11234603077173233 0.09649144113063812 0.320000022649765
-0.1111941710114479 0.09679297357797623 0.32100000977516174
-0.11003295332193375 0.09709451347589493 0.32200002670288086
-0.1085253357887268 0.09709451347589493 0.32200002670288086
-0.10735007375478745 0.09739604592323303 0.3230000138282776
-0.10583776980638504 0.09739604592323303 0.3230000138282776
-0.10464846342802048 0.09769757837057114 0.3240000009536743
-0.10281316936016083 0.09739604592323303 0.3230000138282776
-0.10004636645317078 0.09618990123271942 0.3190000057220459
-0.09855280071496964 0.09618990123271942 0.3190000057220459
-0.09675497561693192 0.09588836878538132 0.31800001859664917
-0.09526608884334564 0.09588836878538132 0.31800001859664917
-0.09377719461917877 0.09588836878538132 0.31800001859664917
-0.0922883078455925 0.09588836878538132 0.31800001859664917
-0.09079942107200623 0.09588836878538132 0.31800001859664917
-0.08931052684783936 0.09588836878538132 0.31800001859664917
-0.0875454694032669 0.09558682888746262 0.31700000166893005
-0.0860612541437149 0.09558682888746262 0.31700000166893005
-0.08431024849414825 0.09528529644012451 0.3160000145435333
-0.08256860822439194 0.09498376399278641 0.3150000274181366
-0.08083631843328476 0.0946822240948677 0.3140000104904175
-0.0 0.0 0.0
-0.07864023000001907 0.09558682888746262 0.31700000166893005
-0.07593904435634613 0.0940791517496109 0.31200000643730164
-0.07519439607858658 0.09498376399278641 0.3150000274181366
-0.07278342545032501 0.0937776193022728 0.3110000193119049
-0.07224470376968384 0.09498376399278641 0.3150000274181366
-0.07076986134052277 0.09498376399278641 0.3150000274181366
-0.06951500475406647 0.09528529644012451 0.3160000145435333
-0.06803547590970993 0.09528529644012451 0.3160000145435333
-0.06655595451593399 0.09528529644012451 0.3160000145435333
-0.06507642567157745 0.09528529644012451 0.3160000145435333
-0.06359690427780151 0.09528529644012451 0.3160000145435333
-0.061920806765556335 0.09498376399278641 0.3150000274181366
-0.06025407090783119 0.0946822240948677 0.3140000104904175
-0.05859670042991638 0.0943806916475296 0.31300002336502075
-0.05713122338056564 0.0943806916475296 0.31300002336502075
-0.055665742605924606 0.0943806916475296 0.31300002336502075
-0.054027099162340164 0.0940791517496109 0.31200000643730164
-0.05239781737327576 0.0937776193022728 0.3110000193119049
-0.05094170570373535 0.0937776193022728 0.3110000193119049
-0.049326471984386444 0.0934760719537735 0.3100000023841858
-0.04787503927946091 0.0934760719537735 0.3100000023841858
-0.04642360657453537 0.0934760719537735 0.3100000023841858
-0.044972170144319534 0.0934760719537735 0.3100000023841858
-0.043520741164684296 0.0934760719537735 0.3100000023841858
-0.04193360358476639 0.09317454695701599 0.30900001525878906
-0.04048685356974602 0.09317454695701599 0.30900001525878906
-0.03904010355472565 0.09317454695701599 0.30900001525878906
-0.037593353539705276 0.09317454695701599 0.30900001525878906
-0.036029621958732605 0.09287301450967789 0.30800002813339233
-0.0345875546336174 0.09287301450967789 0.30800002813339233
-0.03303786739706993 0.09257147461175919 0.3070000112056732
-0.03149754926562309 0.09226994216442108 0.3060000240802765
-0.030064845457673073 0.09226994216442108 0.3060000240802765
-0.028538571670651436 0.09196839481592178 0.3050000071525574
-0.026932774111628532 0.09136532247066498 0.30300000309944153
-0.02542991191148758 0.09106379747390747 0.3020000159740448
-0.02393641322851181 0.09076226502656937 0.30100002884864807
-0.022452276200056076 0.09046071767807007 0.30000001192092896
-0.020977506414055824 0.09015919268131256 0.2990000247955322
-0.019577577710151672 0.09015919268131256 0.2990000247955322
-0.018116850405931473 0.08985764533281326 0.2980000078678131
-0.016609376296401024 0.08925457298755646 0.29600000381469727
-0.015172062441706657 0.08895304054021835 0.29500001668930054
-0.013744110241532326 0.08865150064229965 0.2939999997615814
-0.012325525283813477 0.08834996819496155 0.2930000126361847
-0.010878917761147022 0.08774689584970474 0.29100000858306885
-0.009483741596341133 0.08744536340236664 0.2900000214576721
-0.008069908246397972 0.08684229105710983 0.2880000174045563
-0.006698142271488905 0.08654075115919113 0.28700000047683716
-0.0053357407450675964 0.08623921871185303 0.28600001335144043
-0.003982702735811472 0.08593768626451492 0.2850000262260437
-0.0026390282437205315 0.08563614636659622 0.2840000092983246
-0.001304718549363315 0.08533461391925812 0.28300002217292786
2.0155579477432184e-05 0.08473154157400131 0.281000018119812
0.0013263014843687415 0.0841284692287445 0.27900001406669617
0.002613719319924712 0.0835253968834877 0.2770000100135803
0.003882408607751131 0.0829223245382309 0.2750000059604645
0.005151170305907726 0.08262079209089279 0.27400001883506775
0.006434048991650343 0.08262079209089279 0.27400001883506775
0.0076887640170753 0.08231925219297409 0.27300000190734863
0.008966960944235325 0.08231925219297409 0.27300000190734863
0.010207630693912506 0.08201771974563599 0.2720000147819519
0.011438935995101929 0.08171618729829788 0.2710000276565552
0.012707768939435482 0.08171618729829788 0.2710000276565552
0.013873454183340073 0.08111311495304108 0.26900002360343933
0.015076665207743645 0.08081157505512238 0.2680000066757202
0.016209576278924942 0.08020850270986557 0.26600000262260437
0.017323758453130722 0.07960543036460876 0.2639999985694885
0.018489515408873558 0.07930389791727066 0.2630000114440918
0.01964590884745121 0.07900236546993256 0.26200002431869507
0.020872602239251137 0.07900236546993256 0.26200002431869507
0.02201494760811329 0.07870082557201385 0.26100000739097595
0.023236960172653198 0.07870082557201385 0.26100000739097595
0.02436526119709015 0.07839929312467575 0.2600000202655792
0.02558259293437004 0.07839929312467575 0.2600000202655792
0.02669684588909149 0.07809775322675705 0.2590000033378601
0.02780173532664776 0.07779622077941895 0.2580000162124634
0.028784820809960365 0.07719314843416214 0.25600001215934753
0.029866302385926247 0.07689161598682404 0.2550000250339508
0.030938414856791496 0.07659007608890533 0.2540000081062317
0.03200116753578186 0.07628854364156723 0.25300002098083496
0.03305455297231674 0.07598700374364853 0.25200000405311584
0.03409858047962189 0.07568547129631042 0.2510000169277191
0.0351332351565361 0.07538393139839172 0.25
0.03615853562951088 0.07508239895105362 0.24900001287460327
0.03732436150312424 0.07508239895105362 0.24900001287460327
0.03833560645580292 0.07478086650371552 0.24800001084804535
0.03933749347925186 0.07447932660579681 0.24700000882148743
0.04016606882214546 0.07387625426054001 0.24500000476837158
0.04114454984664917 0.0735747218132019 0.24400001764297485
0.04228696599602699 0.0735747218132019 0.24400001764297485
0.043251391500234604 0.0732731893658638 0.24300001561641693
0.04420645907521248 0.0729716494679451 0.242000013589859
0.04533950984477997 0.0729716494679451 0.242000013589859
0.04628053307533264 0.072670117020607 0.2410000115633011
0.047408901154994965 0.072670117020607 0.2410000115633011
0.04833587631583214 0.0723685771226883 0.24000000953674316
0.04925348237156868 0.07206703722476959 0.23900000751018524
0.05016172304749489 0.07176550477743149 0.23800000548362732
0.05127605050802231 0.07176550477743149 0.23800000548362732
0.052170250564813614 0.07146397233009338 0.2370000183582306
0.053055088967084885 0.07116243988275528 0.23600001633167267
0.053930554538965225 0.07086089998483658 0.23500001430511475
0.05479665845632553 0.07055936008691788 0.23400001227855682
0.05589225888252258 0.07055936008691788 0.23400001227855682
0.05674431473016739 0.07025782763957977 0.2330000102519989
0.05758701264858246 0.06995628774166107 0.23200000822544098
0.058420341461896896 0.06965475529432297 0.23100000619888306
0.0592443086206913 0.06935321539640427 0.23000000417232513
0.060321178287267685 0.06935321539640427 0.23000000417232513
0.061131108552217484 0.06905168294906616 0.2290000170469284
0.062203291803598404 0.06905168294906616 0.2290000170469284
0.06327547878026962 0.06905168294906616 0.2290000170469284
0.06462865322828293 0.06935321539640427 0.23000000417232513
0.06570553034543991 0.06935321539640427 0.23000000417232513
0.06707275658845901 0.06965475529432297 0.23100000619888306
0.06815430521965027 0.06965475529432297 0.23100000619888306
0.06953557580709457 0.06995628774166107 0.23200000822544098
0.07123062014579773 0.07055936008691788 0.23400001227855682
0.07263530790805817 0.07086089998483658 0.23500001430511475
0.07404936105012894 0.07116243988275528 0.23600001633167267
0.07579121738672256 0.07176550477743149 0.23800000548362732
0.07722867280244827 0.07206703722476959 0.23900000751018524
0.07867549359798431 0.0723685771226883 0.24000000953674316
0.0804641842842102 0.0729716494679451 0.242000013589859
0.08227159827947617 0.0735747218132019 0.24400001764297485
0.0840977281332016 0.07417779415845871 0.2460000067949295
0.08628913760185242 0.07508239895105362 0.24900001287460327
0.08815741539001465 0.07568547129631042 0.2510000169277191
0.090400330722332 0.07659007608890533 0.2540000081062317
0.09231074899435043 0.07719314843416214 0.25600001215934753
0.09423989057540894 0.07779622077941895 0.2580000162124634
0.0961877629160881 0.07839929312467575 0.2600000202655792
0.09852899610996246 0.07930389791727066 0.2630000114440918
0.10089832544326782 0.08020850270986557 0.26600000262260437
0.10329575091600418 0.08111311495304108 0.26900002360343933
0.10533258318901062 0.08171618729829788 0.2710000276565552
0.10738813132047653 0.08231925219297409 0.27300000190734863
0.1094624251127243 0.0829223245382309 0.2750000059604645
0.11195817589759827 0.0838269367814064 0.27800002694129944
0.11448200792074203 0.08473154157400131 0.281000018119812
0.11579766124486923 0.08473154157400131 0.281000018119812
0.11711330711841583 0.08473154157400131 0.281000018119812
0.11885041743516922 0.08503307402133942 0.28200000524520874
0.12017075717449188 0.08503307402133942 0.28200000524520874
0.12149108946323395 0.08503307402133942 0.28200000524520874
0.12281142175197601 0.08503307402133942 0.28200000524520874
0.12457194924354553 0.08533461391925812 0.28300002217292786
0.12589697539806366 0.08533461391925812 0.28300002217292786
0.1272219866514206 0.08533461391925812 0.28300002217292786
0.12900123000144958 0.08563614636659622 0.2840000092983246
0.13124874234199524 0.08623921871185303 0.28600001335144043
0.13258780539035797 0.08623921871185303 0.28600001335144043
0.13299033045768738 0.08563614636659622 0.2840000092983246
0.13526594638824463 0.08623921871185303 0.28600001335144043
0.13660500943660736 0.08623921871185303 0.28600001335144043
0.1379440724849701 0.08623921871185303 0.28600001335144043
0.13977012038230896 0.08654075115919113 0.28700000047683716
0.13914714753627777 0.08533461391925812 0.28300002217292786
0.1404721587896347 0.08533461391925812 0.28300002217292786
0.14229822158813477 0.08563614636659622 0.2840000092983246
0.14362792670726776 0.08563614636659622 0.2840000092983246
0.14495761692523956 0.08563614636659622 0.2840000092983246
0.14628732204437256 0.08563614636659622 0.2840000092983246
0.14761701226234436 0.08563614636659622 0.2840000092983246
0.14894671738147736 0.08563614636659622 0.2840000092983246
0.15186384320259094 0.08654075115919113 0.28700000047683716
0.15427523851394653 0.08714382350444794 0.289000004529953
0.0 0.0 0.0
0.0 0.0 0.0
0.0 0.0 0.0
0.0 0.0 0.0
0.0 0.0 0.0
0.0 0.0 0.0
0.15468142926692963 0.08231925219297409 0.27300000190734863
0.15653091669082642 0.08262079209089279 0.27400001883506775
0.15896572172641754 0.0832238644361496 0.2760000228881836
0.16083858907222748 0.0835253968834877 0.2770000100135803
0.16272085905075073 0.0838269367814064 0.27800002694129944
0.16461247205734253 0.0841284692287445 0.27900001406669617
0.1659187525510788 0.0841284692287445 0.27900001406669617
0.16722504794597626 0.0841284692287445 0.27900001406669617
0.16853132843971252 0.0841284692287445 0.27900001406669617
0.16922889649868011 0.0838269367814064 0.27800002694129944
0.1705305129289627 0.0838269367814064 0.27800002694129944
0.1718321144580841 0.0838269367814064 0.27800002694129944
0.17251093685626984 0.0835253968834877 0.2770000100135803
0.17192545533180237 0.08262079209089279 0.27400001883506775
0.1719440519809723 0.08201771974563599 0.2720000147819519
0.0 0.0 0.0
0.0 0.0 0.0
0.0 0.0 0.0
0.0 0.0 0.0
0.0 0.0 0.0
0.0 0.0 0.0
0.0 0.0 0.0
0.0 0.0 0.0
0.0 0.0 0.0
0.0 0.0 0.0
0.0 0.0 0.0
0.0 0.0 0.0
0.0 0.0 0.0
0.0 0.0 0.0
0.18332061171531677 0.07870082557201385 0.26100000739097595
0.1852497011423111 0.07900236546993256 0.26200002431869507
0.18647637963294983 0.07900236546993256 0.26200002431869507
0.18698665499687195 0.07870082557201385 0.26100000739097595
0.1882086545228958 0.07870082557201385 0.26100000739097595
0.18943066895008087 0.07870082557201385 0.26100000739097595
0.19065269827842712 0.07870082557201385 0.26100000739097595
0.19260986149311066 0.07900236546993256 0.26200002431869507
0.19383655488491058 0.07900236546993256 0.26200002431869507
0.19580775499343872 0.07930389791727066 0.2630000114440918
0.1977883279323578 0.07960543036460876 0.2639999985694885
0.19977828860282898 0.07990697026252747 0.26500001549720764
0.20177756249904633 0.08020850270986557 0.26600000262260437
0.20378625392913818 0.08051004260778427 0.2670000195503235
0.20503635704517365 0.08051004260778427 0.2670000195503235
0.2062864601612091 0.08051004260778427 0.2670000195503235
0.2090911567211151 0.08111311495304108 0.26900002360343933
0.20956861972808838 0.08081157505512238 0.2680000066757202
0.2100367695093155 0.08051004260778427 0.2670000195503235
0.2097042053937912 0.07990697026252747 0.26500001549720764
0.21094493567943573 0.07990697026252747 0.26500001549720764
0.21298637986183167 0.08020850270986557 0.26600000262260437
0.21423178911209106 0.08020850270986557 0.26600000262260437
0.216287299990654 0.08051004260778427 0.2670000195503235
0.21916690468788147 0.08111311495304108 0.26900002360343933
0.22042636573314667 0.08111311495304108 0.26900002360343933
0.22168584167957306 0.08111311495304108 0.26900002360343933
0.22211650013923645 0.08081157505512238 0.2680000066757202
0.22170433402061462 0.08020850270986557 0.26600000262260437
0.22294975817203522 0.08020850270986557 0.26600000262260437
0.2233523428440094 0.07990697026252747 0.26500001549720764
0.22374555468559265 0.07960543036460876 0.2639999985694885
0.22498160600662231 0.07960543036460876 0.2639999985694885
0.22621767222881317 0.07960543036460876 0.2639999985694885
0.22745373845100403 0.07960543036460876 0.2639999985694885
0.22955605387687683 0.07990697026252747 0.26500001549720764
0.23079679906368256 0.07990697026252747 0.26500001549720764
0.2320375293493271 0.07990697026252747 0.26500001549720764
0.2332782745361328 0.07990697026252747 0.26500001549720764
0.23451901972293854 0.07990697026252747 0.26500001549720764
0.2348700761795044 0.07960543036460876 0.2639999985694885
0.23610614240169525 0.07960543036460876 0.2639999985694885
0.2364431768655777 0.07930389791727066 0.2630000114440918
0.2367708683013916 0.07900236546993256 0.26200002431869507
0.23799757659435272 0.07900236546993256 0.26200002431869507
0.23922425508499146 0.07900236546993256 0.26200002431869507
0.24045096337795258 0.07900236546993256 0.26200002431869507
0.2416776418685913 0.07900236546993256 0.26200002431869507
0.24197721481323242 0.07870082557201385 0.26100000739097595
0.24319922924041748 0.07870082557201385 0.26100000739097595
0.243484765291214 0.07839929312467575 0.2600000202655792
0.24470210075378418 0.07839929312467575 0.2600000202655792
0.2449735701084137 0.07809775322675705 0.2590000033378601
0.24618622660636902 0.07809775322675705 0.2590000033378601
0.24739888310432434 0.07809775322675705 0.2590000033378601
0.24861150979995728 0.07809775322675705 0.2590000033378601
0.2478950172662735 0.07749468088150024 0.25699999928474426
0.2490983009338379 0.07749468088150024 0.25699999928474426
0.2493276596069336 0.07719314843416214 0.25600001215934753
0.2505262792110443 0.07719314843416214 0.25600001215934753
0.25172486901283264 0.07719314843416214 0.25600001215934753
0.25391143560409546 0.07749468088150024 0.25699999928474426
-0.0 0.0 0.0
-0.0 0.0 0.0
-0.0 0.0 0.0
-0.0 0.0 0.0
-0.0 0.0 0.0
-0.0 0.0 0.0
-0.0 0.0 0.0
-0.0 0.0 0.0
-0.0 0.0 0.0
-0.0 0.0 0.0
-0.0 0.0 0.0
-0.0 0.0 0.0
-0.0 0.0 0.0
-0.0 0.0 0.0
-0.0 0.0 0.0
-0.0 0.0 0.0
-0.0 0.0 0.0
-0.0 0.0 0.0
-0.0 0.0 0.0
-0.0 0.0 0.0
-0.0 0.0 0.0
-0.0 0.0 0.0
-0.0 0.0 0.0
-0.0 0.0 0.0
-0.0 0.0 0.0
-0.0 0.0 0.0
-0.0 0.0 0.0
-0.0 0.0 0.0
-0.0 0.0 0.0
-0.0 0.0 0.0
-0.0 0.0 0.0
-0.0 0.0 0.0
-0.0 0.0 0.0
-0.0 0.0 0.0
-0.0 0.0 0.0
-0.0 0.0 0.0
-0.0 0.0 0.0
-0.0 0.0 0.0
-0.0 0.0 0.0
-0.0 0.0 0.0
-0.0 0.0 0.0
0.0 0.0 0.0
0.0 0.0 0.0
0.0 0.0 0.0
0.0 0.0 0.0
0.0 0.0 0.0
0.0 0.0 0.0
0.0 0.0 0.0
0.0 0.0 0.0
0.0 0.0 0.0
-0.2464861422777176 0.09952078759670258 0.32500001788139343
-0.24345698952674866 0.09890834987163544 0.3230000138282776
-0.2411956489086151 0.09860213845968246 0.32200002670288086
-0.2389436513185501 0.0982959121465683 0.32100000977516174
-0.23670102655887604 0.09798970073461533 0.320000022649765
-0.23520277440547943 0.09798970073461533 0.320000022649765
-0.23370452225208282 0.09798970073461533 0.320000022649765
-0.23220627009868622 0.09798970073461533 0.320000022649765
-0.2307080179452896 0.09798970073461533 0.320000022649765
-0.22992603480815887 0.0982959121465683 0.32100000977516174
-0.2291347086429596 0.09860213845968246 0.32200002670288086
-0.22762709856033325 0.09860213845968246 0.32200002670288086
-0.22611947357654572 0.09860213845968246 0.32200002670288086
-0.22600695490837097 0.09921456128358841 0.3240000009536743
-0.22310423851013184 0.09860213845968246 0.32200002670288086
-0.2215966135263443 0.09860213845968246 0.32200002670288086
-0.22008901834487915 0.09860213845968246 0.32200002670288086
-0.21926020085811615 0.09890834987163544 0.3230000138282776
-0.21572549641132355 0.09798970073461533 0.320000022649765
-0.21355776488780975 0.09768347442150116 0.3190000057220459
-0.21206417679786682 0.09768347442150116 0.3190000057220459
-0.21057061851024628 0.09768347442150116 0.3190000057220459
-0.20907704532146454 0.09768347442150116 0.3190000057220459
-0.20823423564434052 0.09798970073461533 0.320000022649765
-0.20738200843334198 0.0982959121465683 0.32100000977516174
-0.2065204530954361 0.09860213845968246 0.32200002670288086
-0.20501284301280975 0.09860213845968246 0.32200002670288086
-0.20413720607757568 0.09890834987163544 0.3230000138282776
-0.20325224101543427 0.09921456128358841 0.3240000009536743
-0.2017352432012558 0.09921456128358841 0.3240000009536743
-0.20083622634410858 0.09952078759670258 0.32500001788139343
-0.19931457936763763 0.09952078759670258 0.32500001788139343
-0.19718430936336517 0.09921456128358841 0.3240000009536743
-0.19506342709064484 0.09890834987163544 0.3230000138282776
-0.19175343215465546 0.09798970073461533 0.320000022649765
-0.18966062366962433 0.09768347442150116 0.3190000057220459
-0.18757720291614532 0.09737726300954819 0.31800001859664917
-0.18608830869197845 0.09737726300954819 0.31800001859664917
-0.18808242678642273 0.09921456128358841 0.3240000009536743
-0.18541382253170013 0.09860213845968246 0.32200002670288086
-0.1839061975479126 0.09860213845968246 0.32200002670288086
-0.18296502530574799 0.09890834987163544 0.3230000138282776
-0.18145272135734558 0.09890834987163544 0.3230000138282776
-0.17994043231010437 0.09890834987163544 0.3230000138282776
-0.17787572741508484 0.09860213845968246 0.32200002670288086
-0.17582036554813385 0.0982959121465683 0.32100000977516174
-0.1732313483953476 0.09768347442150116 0.3190000057220459
-0.17119942605495453 0.09737726300954819 0.31800001859664917
-0.16971051692962646 0.09737726300954819 0.31800001859664917
-0.1682216376066208 0.09737726300954819 0.31800001859664917
-0.16673274338245392 0.09737726300954819 0.31800001859664917
-0.16524386405944824 0.09737726300954819 0.31800001859664917
-0.16375496983528137 0.09737726300954819 0.31800001859664917
-0.1622660756111145 0.09737726300954819 0.31800001859664917
-0.16128277778625488 0.09768347442150116 0.3190000057220459
-0.15978920459747314 0.09768347442150116 0.3190000057220459
-0.1582956314086914 0.09768347442150116 0.3190000057220459
-0.15729361772537231 0.09798970073461533 0.320000022649765
-0.15774279832839966 0.09921456128358841 0.3240000009536743
-0.15863671898841858 0.10074566304683685 0.3290000259876251
-0.15852880477905273 0.10166431218385696 0.3320000171661377
-0.15602874755859375 0.10105187445878983 0.33000001311302185
-0.1526111364364624 0.09982699900865555 0.32600000500679016
-0.14830410480499268 0.09798970073461533 0.320000022649765
-0.14542953670024872 0.09707103669643402 0.31700000166893005
-0.14394532144069672 0.09707103669643402 0.31700000166893005
-0.1424611210823059 0.09707103669643402 0.31700000166893005
-0.14053219556808472 0.09676482528448105 0.3160000145435333
-0.1394927054643631 0.09707103669643402 0.31700000166893005
-0.1388792246580124 0.09768347442150116 0.3190000057220459
-0.13738563656806946 0.09768347442150116 0.3190000057220459
-0.13759605586528778 0.09890834987163544 0.3230000138282776
-0.13566245138645172 0.09860213845968246 0.32200002670288086
-0.1362379789352417 0.10013322532176971 0.3270000219345093
-0.13470695912837982 0.10013322532176971 0.3270000219345093
-0.1335831731557846 0.10043943673372269 0.328000009059906
-0.12520354986190796 0.0952337384223938 0.3110000193119049
-0.12414533644914627 0.09553994983434677 0.31200000643730164
-0.12425742298364639 0.09676482528448105 0.3160000145435333
-0.12277790158987045 0.09676482528448105 0.3160000145435333
-0.12129837274551392 0.09676482528448105 0.3160000145435333
-0.11981884390115738 0.09676482528448105 0.3160000145435333
-0.11833932250738144 0.09676482528448105 0.3160000145435333
-0.11722960323095322 0.09707103669643402 0.31700000166893005
-0.11574538797140121 0.09707103669643402 0.31700000166893005
-0.1142611876130104 0.09707103669643402 0.31700000166893005
-0.112776979804039 0.09707103669643402 0.31700000166893005
-0.11164386570453644 0.09737726300954819 0.31800001859664917
-0.11015497893095016 0.09737726300954819 0.31800001859664917
-0.10900779068470001 0.09768347442150116 0.3190000057220459
-0.10751422494649887 0.09768347442150116 0.3190000057220459
-0.10568830370903015 0.09737726300954819 0.31800001859664917
-0.10387174040079117 0.09707103669643402 0.31700000166893005
-0.10206454992294312 0.09676482528448105 0.3160000145435333
-0.09994840621948242 0.09615238755941391 0.3140000104904175
-0.09847824275493622 0.09615238755941391 0.3140000104904175
-0.09700808674097061 0.09615238755941391 0.3140000104904175
-0.09584219753742218 0.09645861387252808 0.3150000274181366
-0.09466692805290222 0.09676482528448105 0.3160000145435333
-0.09318739920854568 0.09676482528448105 0.3160000145435333
-0.09199808537960052 0.09707103669643402 0.31700000166893005
-0.09051387757062912 0.09707103669643402 0.31700000166893005
-0.08902967721223831 0.09707103669643402 0.31700000166893005
-0.08726930618286133 0.09676482528448105 0.3160000145435333
-0.08524680137634277 0.09615238755941391 0.3140000104904175
-0.08324302732944489 0.09553994983434677 0.31200000643730164
-0.08099587261676788 0.09462130069732666 0.30900001525878906
-0.0790342390537262 0.09400886297225952 0.3070000112056732
-0.07734408974647522 0.09370265156030655 0.3060000240802765
-0.07566331326961517 0.09339642524719238 0.3050000071525574
-0.07423528283834457 0.09339642524719238 0.3050000071525574
-0.07304598391056061 0.09370265156030655 0.3060000240802765
-0.07184730470180511 0.09400886297225952 0.3070000112056732
-0.07063926756381989 0.09431508928537369 0.30800002813339233
-0.0698711946606636 0.0952337384223938 0.3110000193119049
-0.06885505467653275 0.09584617614746094 0.31300002336502075
-0.067389577627182 0.09584617614746094 0.31300002336502075
-0.06592409312725067 0.09584617614746094 0.31300002336502075
-0.06445861607789993 0.09584617614746094 0.31300002336502075
-0.06279187649488449 0.09553994983434677 0.31200000643730164
-0.06113450974225998 0.0952337384223938 0.3110000193119049
-0.059486500918865204 0.09492751210927963 0.3100000023841858
-0.05784785747528076 0.09462130069732666 0.30900001525878906
-0.05640111118555069 0.09462130069732666 0.30900001525878906
-0.05495435744524002 0.09462130069732666 0.30900001525878906
-0.053334444761276245 0.09431508928537369 0.30800002813339233
-0.05189237371087074 0.09431508928537369 0.30800002813339233
-0.05028650537133217 0.09400886297225952 0.3070000112056732
-0.048690006136894226 0.09370265156030655 0.3060000240802765
-0.04725730046629906 0.09370265156030655 0.3060000240802765
-0.04582459479570389 0.09370265156030655 0.3060000240802765
-0.04439188912510872 0.09370265156030655 0.3060000240802765
-0.04295918717980385 0.09370265156030655 0.3060000240802765
-0.04152648523449898 0.09370265156030655 0.3060000240802765
-0.04009377583861351 0.09370265156030655 0.3060000240802765
-0.03866107389330864 0.09370265156030655 0.3060000240802765
-0.03722836822271347 0.09370265156030655 0.3060000240802765
-0.0357956625521183 0.09370265156030655 0.3060000240802765
-0.034250661730766296 0.09339642524719238 0.3050000071525574
-0.032822638750076294 0.09339642524719238 0.3050000071525574
-0.03129168227314949 0.09309021383523941 0.30400002002716064
-0.029868341982364655 0.09309021383523941 0.30400002002716064
-0.028257865458726883 0.09247777611017227 0.3020000159740448
-0.02675500325858593 0.0921715646982193 0.30100002884864807
-0.025177298113703728 0.09155912697315216 0.2990000247955322
-0.02369784191250801 0.091252900660038 0.2980000078678131
-0.022302594035863876 0.091252900660038 0.2980000078678131
-0.020907346159219742 0.091252900660038 0.2980000078678131
-0.01944662258028984 0.09094668924808502 0.2970000207424164
-0.018056055530905724 0.09094668924808502 0.2970000207424164
-0.016609376296401024 0.09064047038555145 0.29600000381469727
-0.015120631083846092 0.09002803266048431 0.2939999997615814
-0.013697362504899502 0.08972181379795074 0.2930000126361847
-0.012283459305763245 0.08941560238599777 0.29200002551078796
-0.010878917761147022 0.0891093760728836 0.29100000858306885
-0.00945103820413351 0.08849694579839706 0.289000004529953
-0.008069908246397972 0.0881907269358635 0.2880000174045563
-0.006698142271488905 0.08788450807332993 0.28700000047683716
-0.0053357407450675964 0.08757828921079636 0.28600001335144043
-0.003982702735811472 0.08727207779884338 0.2850000262260437
-0.0026390282437205315 0.08696585148572922 0.2840000092983246
-0.001304718549363315 0.08665964007377625 0.28300002217292786
2.0155579477432184e-05 0.0860472023487091 0.281000018119812
0.0013263014843687415 0.08543476462364197 0.27900001406669617
0.002613719319924712 0.08482233434915543 0.2770000100135803
0.0038965267594903708 0.08451611548662186 0.2760000228881836
0.005169969983398914 0.08420989662408829 0.2750000059604645
0.006434048991650343 0.08390367776155472 0.27400001883506775
0.0076887640170753 0.08359745889902115 0.27300000190734863
0.008966960944235325 0.08359745889902115 0.27300000190734863
0.010207630693912506 0.08329124003648758 0.2720000147819519
0.011438935995101929 0.0829850286245346 0.2710000276565552
0.012707768939435482 0.0829850286245346 0.2710000276565552
0.013873454183340073 0.08237259089946747 0.26900002360343933
0.015076665207743645 0.0820663720369339 0.2680000066757202
0.016209576278924942 0.08145393431186676 0.26600000262260437
0.017323758453130722 0.08084149658679962 0.2639999985694885
0.018489515408873558 0.08053528517484665 0.2630000114440918
0.01964590884745121 0.08022906631231308 0.26200002431869507
0.020872602239251137 0.08022906631231308 0.26200002431869507
0.02201494760811329 0.07992284744977951 0.26100000739097595
0.023236960172653198 0.07992284744977951 0.26100000739097595
0.02436526119709015 0.07961662858724594 0.2600000202655792
0.02558259293437004 0.07961662858724594 0.2600000202655792
0.02669684588909149 0.07931040972471237 0.2590000033378601
0.02780173532664776 0.0790041983127594 0.2580000162124634
0.028784820809960365 0.07839176058769226 0.25600001215934753
0.029866302385926247 0.07808554172515869 0.2550000250339508
0.030938414856791496 0.07777932286262512 0.2540000081062317
0.03200116753578186 0.07747310400009155 0.25300002098083496
0.0329233855009079 0.07686067372560501 0.2510000169277191
0.03409858047962189 0.07686067372560501 0.2510000169277191
0.0351332351565361 0.07655444741249084 0.25
0.03615853562951088 0.07624823600053787 0.24900001287460327
0.03717446327209473 0.0759420171380043 0.24800001084804535
0.03833560645580292 0.0759420171380043 0.24800001084804535
0.039178233593702316 0.07532957941293716 0.2460000067949295
0.04016606882214546 0.0750233605504036 0.24500000476837158
0.04114454984664917 0.07471714913845062 0.24400001764297485
0.04228696599602699 0.07471714913845062 0.24400001764297485
0.043251391500234604 0.07441093027591705 0.24300001561641693
0.04420645907521248 0.07410471141338348 0.242000013589859
0.04533950984477997 0.07410471141338348 0.242000013589859
0.04628053307533264 0.07379849255084991 0.2410000115633011
0.047212183475494385 0.07349227368831635 0.24000000953674316
0.04813447594642639 0.07318605482578278 0.23900000751018524
0.04925348237156868 0.07318605482578278 0.23900000751018524
0.05016172304749489 0.0728798359632492 0.23800000548362732
0.05106060951948166 0.07257362455129623 0.2370000183582306
0.0519501231610775 0.07226740568876266 0.23600001633167267
0.052830278873443604 0.0719611868262291 0.23500001430511475
0.05370106175541878 0.07165496796369553 0.23400001227855682
0.05479665845632553 0.07165496796369553 0.23400001227855682
0.0556534007191658 0.07134874910116196 0.2330000102519989
0.05650077760219574 0.07104253023862839 0.23200000822544098
0.05733879283070564 0.07073631137609482 0.23100000619888306
0.058167438954114914 0.07043009251356125 0.23000000417232513
0.0592443086206913 0.07043009251356125 0.23000000417232513
0.06005891412496567 0.07012388110160828 0.2290000170469284
0.061131108552217484 0.07012388110160828 0.2290000170469284
0.062203291803598404 0.07012388110160828 0.2290000170469284
0.06327547878026962 0.07012388110160828 0.2290000170469284
0.06434766203165054 0.07012388110160828 0.2290000170469284
0.06570553034543991 0.07043009251356125 0.23000000417232513
0.0667824000120163 0.07043009251356125 0.23000000417232513
0.06815430521965027 0.07073631137609482 0.23100000619888306
0.06953557580709457 0.07104253023862839 0.23200000822544098
0.07092621922492981 0.07134874910116196 0.2330000102519989
0.07263530790805817 0.0719611868262291 0.23500001430511475
0.07404936105012894 0.07226740568876266 0.23600001633167267
0.07547277212142944 0.07257362455129623 0.2370000183582306
0.07722867280244827 0.07318605482578278 0.23900000751018524
0.07867549359798431 0.07349227368831635 0.24000000953674316
0.0804641842842102 0.07410471141338348 0.242000013589859
0.08227159827947617 0.07471714913845062 0.24400001764297485
0.0840977281332016 0.07532957941293716 0.2460000067949295
0.08628913760185242 0.07624823600053787 0.24900001287460327
0.08850863575935364 0.07716688513755798 0.25200000405311584
0.09075624495744705 0.07808554172515869 0.2550000250339508
0.09267133474349976 0.07869797199964523 0.25699999928474426
0.09423989057540894 0.0790041983127594 0.2580000162124634
0.0961877629160881 0.07961662858724594 0.2600000202655792
0.09852899610996246 0.08053528517484665 0.2630000114440918
0.10089832544326782 0.08145393431186676 0.26600000262260437
0.10329575091600418 0.08237259089946747 0.26900002360343933
0.10533258318901062 0.0829850286245346 0.2710000276565552
0.10738813132047653 0.08359745889902115 0.27300000190734863
0.1094624251127243 0.08420989662408829 0.2750000059604645
0.11115272343158722 0.08451611548662186 0.2760000228881836
0.11285236477851868 0.08482233434915543 0.2770000100135803
0.11456138640642166 0.085128553211689 0.27800002694129944
0.11586299538612366 0.085128553211689 0.27800002694129944
0.11716460436582565 0.085128553211689 0.27800002694129944
0.11889234185218811 0.08543476462364197 0.27900001406669617
0.12019862979650497 0.08543476462364197 0.27900001406669617
0.12150491774082184 0.08543476462364197 0.27900001406669617
0.1228112056851387 0.08543476462364197 0.27900001406669617
0.12411750108003616 0.08543476462364197 0.27900001406669617
0.12542378902435303 0.08543476462364197 0.27900001406669617
0.1276385337114334 0.0860472023487091 0.281000018119812
0.1271185427904129 0.08482233434915543 0.2770000100135803
0.12795187532901764 0.08451611548662186 0.2760000228881836
0.13064895570278168 0.08543476462364197 0.27900001406669617
0.1329011619091034 0.0860472023487091 0.281000018119812
0.1332615315914154 0.08543476462364197 0.27900001406669617
0.1355324536561966 0.0860472023487091 0.281000018119812
0.1368481069803238 0.0860472023487091 0.281000018119812
0.1376720815896988 0.08574098348617554 0.2800000011920929
0.13848668336868286 0.08543476462364197 0.27900001406669617
0.1412961184978485 0.08635342121124268 0.28200000524520874
0.14261646568775177 0.08635342121124268 0.28200000524520874
0.1444472074508667 0.08665964007377625 0.28300002217292786
0.14577223360538483 0.08665964007377625 0.28300002217292786
0.14605768024921417 0.0860472023487091 0.281000018119812
0.14737334847450256 0.0860472023487091 0.281000018119812
0.14657242596149445 0.08482233434915543 0.2770000100135803
0.0 0.0 0.0
0.1448582261800766 0.08237259089946747 0.26900002360343933
0.1461176872253418 0.08237259089946747 0.26900002360343933
0.14792503416538239 0.08267880976200104 0.27000001072883606
0.14918918907642365 0.08267880976200104 0.27000001072883606
0.15101057291030884 0.0829850286245346 0.2710000276565552
0.0 0.0 0.0
0.1535482555627823 0.0829850286245346 0.2710000276565552
0.1559596210718155 0.08359745889902115 0.27300000190734863
0.15781380236148834 0.08390367776155472 0.27400001883506775
0.160257950425148 0.08451611548662186 0.2760000228881836
0.1621355265378952 0.08482233434915543 0.2770000100135803
0.16402247548103333 0.085128553211689 0.27800002694129944
0.1659187525510788 0.08543476462364197 0.27900001406669617
0.16662569344043732 0.085128553211689 0.27800002694129944
0.16792728006839752 0.085128553211689 0.27800002694129944
0.16862015426158905 0.08482233434915543 0.2770000100135803
0.16930367052555084 0.08451611548662186 0.2760000228881836
0.1699777990579605 0.08420989662408829 0.2750000059604645
0.17001979053020477 0.08359745889902115 0.27300000190734863
0.0 0.0 0.0
0.1694154590368271 0.0820663720369339 0.2680000066757202
0.17003342509269714 0.08176015317440033 0.2670000195503235
0.17064200341701508 0.08145393431186676 0.26600000262260437
0.17188742756843567 0.08145393431186676 0.26600000262260437
0.17313283681869507 0.08145393431186676 0.26600000262260437
0.17372271418571472 0.08114771544933319 0.26500001549720764
0.0 0.0 0.0
0.0 0.0 0.0
0.0 0.0 0.0
0.0 0.0 0.0
0.0 0.0 0.0
0.0 0.0 0.0
0.1789662390947342 0.07961662858724594 0.2600000202655792
0.18018358945846558 0.07961662858724594 0.2600000202655792
0.18140091001987457 0.07961662858724594 0.2600000202655792
0.18261824548244476 0.07961662858724594 0.2600000202655792
0.18383558094501495 0.07961662858724594 0.2600000202655792
0.18505290150642395 0.07961662858724594 0.2600000202655792
0.18627023696899414 0.07961662858724594 0.2600000202655792
0.18748755753040314 0.07961662858724594 0.2600000202655792
0.18870489299297333 0.07961662858724594 0.2600000202655792
0.19065269827842712 0.07992284744977951 0.26100000739097595
0.191874697804451 0.07992284744977951 0.26100000739097595
0.19309671223163605 0.07992284744977951 0.26100000739097595
0.1950632482767105 0.08022906631231308 0.26200002431869507
0.19628994166851044 0.08022906631231308 0.26200002431869507
0.1982705146074295 0.08053528517484665 0.2630000114440918
0.20026043057441711 0.08084149658679962 0.2639999985694885
0.20149649679660797 0.08084149658679962 0.2639999985694885
0.20350050926208496 0.08114771544933319 0.26500001549720764
0.20319601893424988 0.08053528517484665 0.2630000114440918
0.2036501169204712 0.08022906631231308 0.26200002431869507
0.0 0.0 0.0
0.20767679810523987 0.08084149658679962 0.2639999985694885
0.20891286432743073 0.08084149658679962 0.2639999985694885
0.2085568904876709 0.08022906631231308 0.26200002431869507
0.20978359878063202 0.08022906631231308 0.26200002431869507
0.21101027727127075 0.08022906631231308 0.26200002431869507
0.21223698556423187 0.08022906631231308 0.26200002431869507
0.21590791642665863 0.08114771544933319 0.26500001549720764
0.21796806156635284 0.08145393431186676 0.26600000262260437
0.21921348571777344 0.08145393431186676 0.26600000262260437
0.21631494164466858 0.07992284744977951 0.26100000739097595
0.219203919172287 0.08053528517484665 0.2630000114440918
0.21792083978652954 0.07961662858724594 0.2600000202655792
0.22082383930683136 0.08022906631231308 0.26200002431869507
0.2220505326986313 0.08022906631231308 0.26200002431869507
0.22157281637191772 0.07961662858724594 0.2600000202655792
0.22450391948223114 0.08022906631231308 0.26200002431869507
0.224869042634964 0.07992284744977951 0.26100000739097595
0.22782355546951294 0.08053528517484665 0.2630000114440918
0.22818401455879211 0.08022906631231308 0.26200002431869507
0.22853507101535797 0.07992284744977951 0.26100000739097595
0.22975708544254303 0.07992284744977951 0.26100000739097595
0.23009413480758667 0.07961662858724594 0.2600000202655792
0.230421781539917 0.07931040972471237 0.2590000033378601
0.23074011504650116 0.0790041983127594 0.2580000162124634
0.2301500141620636 0.07839176058769226 0.25600001215934753
0.23134863376617432 0.07839176058769226 0.25600001215934753
0.23254723846912384 0.07839176058769226 0.25600001215934753
0.23374582827091217 0.07839176058769226 0.25600001215934753
0.23586218059062958 0.07869797199964523 0.25699999928474426
0.23798790574073792 0.0790041983127594 0.2580000162124634
0.23919586837291718 0.0790041983127594 0.2580000162124634
0.24040384590625763 0.0790041983127594 0.2580000162124634
0.2416118085384369 0.0790041983127594 0.2580000162124634
0.24281977117061615 0.0790041983127594 0.2580000162124634
0.24308188259601593 0.07869797199964523 0.25699999928474426
0.24428516626358032 0.07869797199964523 0.25699999928474426
0.24548844993114471 0.07869797199964523 0.25699999928474426
0.24573186039924622 0.07839176058769226 0.25600001215934753
0.24693046510219574 0.07839176058769226 0.25600001215934753
0.24715980887413025 0.07808554172515869 0.2550000250339508
0.2483537346124649 0.07808554172515869 0.2550000250339508
0.24856902658939362 0.07777932286262512 0.2540000081062317
0.2497582584619522 0.07777932286262512 0.2540000081062317
0.250947505235672 0.07777932286262512 0.2540000081062317
-0.0 0.0 0.0
-0.0 0.0 0.0
-0.0 0.0 0.0
-0.0 0.0 0.0
-0.0 0.0 0.0
-0.0 0.0 0.0
-0.0 0.0 0.0
-0.0 0.0 0.0
-0.0 0.0 0.0
-0.0 0.0 0.0
-0.0 0.0 0.0
-0.0 0.0 0.0
-0.0 0.0 0.0
-0.0 0.0 0.0
-0.0 0.0 0.0
-0.0 0.0 0.0
-0.0 0.0 0.0
-0.0 0.0 0.0
-0.0 0.0 0.0
-0.0 0.0 0.0
-0.0 0.0 0.0
-0.0 0.0 0.0
-0.0 0.0 0.0
-0.0 0.0 0.0
-0.0 0.0 0.0
-0.0 0.0 0.0
-0.0 0.0 0.0
-0.0 0.0 0.0
-0.0 0.0 0.0
-0.0 0.0 0.0
-0.0 0.0 0.0
-0.0 0.0 0.0
-0.0 0.0 0.0
-0.0 0.0 0.0
-0.0 0.0 0.0
-0.0 0.0 0.0
-0.0 0.0 0.0
-0.0 0.0 0.0
-0.0 0.0 0.0
-0.0 0.0 0.0
-0.0 0.0 0.0
-0.0 0.0 0.0
0.0 0.0 0.0
0.0 0.0 0.0
0.0 0.0 0.0
0.0 0.0 0.0
-0.0 0.0 0.0
-0.0 0.0 0.0
0.0 0.0 0.0
0.0 0.0 0.0
-0.24496930837631226 0.10042064636945724 0.3230000138282776
-0.24194951355457306 0.09979884326457977 0.32100000977516174
-0.23969753086566925 0.09948795288801193 0.320000022649765
-0.23745490610599518 0.0991770476102829 0.3190000057220459
-0.23596131801605225 0.0991770476102829 0.3190000057220459
-0.23373274505138397 0.09886614978313446 0.31800001859664917
-0.2322438657283783 0.09886614978313446 0.31800001859664917
-0.23075497150421143 0.09886614978313446 0.31800001859664917
-0.22926609218120575 0.09886614978313446 0.31800001859664917
-0.22777719795703888 0.09886614978313446 0.31800001859664917
-0.226288303732872 0.09886614978313446 0.31800001859664917
-0.22479942440986633 0.09886614978313446 0.31800001859664917
-0.22331053018569946 0.09886614978313446 0.31800001859664917
-0.2218216508626938 0.09886614978313446 0.31800001859664917
-0.22102561593055725 0.0991770476102829 0.3190000057220459
-0.21884386241436005 0.09886614978313446 0.31800001859664917
-0.21735498309135437 0.09886614978313446 0.31800001859664917
-0.2158660888671875 0.09886614978313446 0.31800001859664917
-0.21370305120944977 0.09855524450540543 0.31700000166893005
-0.21154938638210297 0.09824434667825699 0.3160000145435333
-0.21006985008716583 0.09824434667825699 0.3160000145435333
-0.2085903435945511 0.09824434667825699 0.3160000145435333
-0.20776621997356415 0.09855524450540543 0.31700000166893005
-0.20628201961517334 0.09855524450540543 0.31700000166893005
-0.20479780435562134 0.09855524450540543 0.31700000166893005
-0.20331358909606934 0.09855524450540543 0.31700000166893005
-0.20246608555316925 0.09886614978313446 0.31800001859664917
-0.20160919427871704 0.0991770476102829 0.3190000057220459
-0.20137028396129608 0.09979884326457977 0.32100000977516174
-0.1998673379421234 0.09979884326457977 0.32100000977516174
-0.19960030913352966 0.10042064636945724 0.3230000138282776
-0.19808802008628845 0.10042064636945724 0.3230000138282776
-0.19596713781356812 0.10010974854230881 0.32200002670288086
-0.192647784948349 0.0991770476102829 0.3190000057220459
-0.18935652077198029 0.09824434667825699 0.3160000145435333
-0.1866878867149353 0.09762255102396011 0.3140000104904175
-0.18462787568569183 0.09731165319681168 0.31300002336502075
-0.1831623911857605 0.09731165319681168 0.31300002336502075
-0.1828579306602478 0.09793345630168915 0.3150000274181366
-0.18138307332992554 0.09793345630168915 0.3150000274181366
-0.18047936260700226 0.09824434667825699 0.3160000145435333
-0.17956629395484924 0.09855524450540543 0.31700000166893005
-0.17808207869529724 0.09855524450540543 0.31700000166893005
-0.17715498805046082 0.09886614978313446 0.31800001859664917
-0.17566609382629395 0.09886614978313446 0.31800001859664917
-0.17417719960212708 0.09886614978313446 0.31800001859664917
-0.17214526236057281 0.09855524450540543 0.31700000166893005
-0.1706610471010208 0.09855524450540543 0.31700000166893005
-0.16864316165447235 0.09824434667825699 0.3160000145435333
-0.16663464903831482 0.09793345630168915 0.3150000274181366
-0.16515980660915375 0.09793345630168915 0.3150000274181366
-0.16368496417999268 0.09793345630168915 0.3150000274181366
-0.1622101217508316 0.09793345630168915 0.3150000274181366
-0.16073526442050934 0.09793345630168915 0.3150000274181366
-0.1587548404932022 0.09762255102396011 0.3140000104904175
-0.157284677028656 0.09762255102396011 0.3140000104904175
-0.1558145135641098 0.09762255102396011 0.3140000104904175
-0.1543443500995636 0.09762255102396011 0.3140000104904175
-0.1528742015361786 0.09762255102396011 0.3140000104904175
-0.15043967962265015 0.09700074791908264 0.31200000643730164
-0.0 0.0 0.0
-0.15177340805530548 0.09979884326457977 0.32100000977516174
-0.14933420717716217 0.0991770476102829 0.3190000057220459
-0.14505994319915771 0.09731165319681168 0.31300002336502075
-0.14359447360038757 0.09731165319681168 0.31300002336502075
-0.14167489111423492 0.09700074791908264 0.31200000643730164
-0.1406635046005249 0.09731165319681168 0.31300002336502075
-0.13919803500175476 0.09731165319681168 0.31300002336502075
-0.13773255050182343 0.09731165319681168 0.31300002336502075
-0.13713780045509338 0.09793345630168915 0.3150000274181366
-0.13566294312477112 0.09793345630168915 0.3150000274181366
-0.13418810069561005 0.09793345630168915 0.3150000274181366
-0.13144932687282562 0.09700074791908264 0.31200000643730164
-0.12957189977169037 0.0966898500919342 0.3110000193119049
-0.12770383059978485 0.09637894481420517 0.3100000023841858
-0.1254378706216812 0.09575715661048889 0.30800002813339233
-0.12439838796854019 0.09606804698705673 0.30900001525878906
-0.12334953248500824 0.09637894481420517 0.3100000023841858
-0.122684545814991 0.09700074791908264 0.31200000643730164
-0.12200082838535309 0.09762255102396011 0.3140000104904175
