ply
format ascii 1.0
element vertex 943
property float x
property float y
property float z
end_header
-0.2219446301460266 0.0754770040512085 0.4310000240802765
-0.2204369306564331 0.0756521224975586 0.4320000112056732
-0.218414306640625 0.0756521224975586 0.4320000112056732
-0.2163916528224945 0.0756521224975586 0.4320000112056732
-0.2138727903366089 0.0754770040512085 0.4310000240802765
-0.21087175607681274 0.0751267597079277 0.42900002002716064
-0.20740258693695068 0.07460140436887741 0.42600002884864807
-0.20444367825984955 0.07425116002559662 0.4240000247955322
-0.20102599263191223 0.07372579723596573 0.42100003361701965
-0.1981092244386673 0.07337556034326553 0.4190000295639038
-0.19521118700504303 0.07302531599998474 0.41700002551078796
-0.19325877726078033 0.07302531599998474 0.41700002551078796
-0.19176512956619263 0.07320043444633484 0.4180000126361847
-0.18980802595615387 0.07320043444633484 0.4180000126361847
-0.18830035626888275 0.07337556034326553 0.4190000295639038
-0.18633857369422913 0.07337556034326553 0.4190000295639038
-0.1843768060207367 0.07337556034326553 0.4190000295639038
-0.18241503834724426 0.07337556034326553 0.4190000295639038
-0.18217594921588898 0.07407603412866592 0.4230000078678131
-0.178491473197937 0.07337556034326553 0.4190000295639038
-0.17610839009284973 0.07320043444633484 0.4180000126361847
-0.1733180284500122 0.07285019010305405 0.41600000858306885
-0.17095836997032166 0.07267507165670395 0.4150000214576721
-0.1682007759809494 0.07232483476400375 0.4130000174045563
-0.16505934298038483 0.07179947197437286 0.4100000262260437
-0.16274181008338928 0.07162434607744217 0.4090000092983246
-0.16043363511562347 0.07144922763109207 0.40800002217292786
-0.15852336585521698 0.07144922763109207 0.40800002217292786
-0.1566130816936493 0.07144922763109207 0.40800002217292786
-0.15432363748550415 0.07127410918474197 0.40700000524520874
-0.15204356610774994 0.07109899073839188 0.406000018119812
-0.14903323352336884 0.07057362794876099 0.40300002694129944
-0.14678122103214264 0.07039850205183029 0.4020000100135803
-0.14417815208435059 0.0700482651591301 0.4000000059604645
-0.1419495791196823 0.06987314671278 0.39900001883506775
-0.13973037898540497 0.0696980282664299 0.398000031709671
-0.13752052187919617 0.0695229023694992 0.3970000147819519
-0.1349783092737198 0.06917265802621841 0.39500001072883606
-0.13211779296398163 0.06864729523658752 0.3920000195503235
-0.12928538024425507 0.06812193989753723 0.3890000283718109
-0.1264810562133789 0.06759656965732574 0.38600000739097595
-0.1240278035402298 0.06724633276462555 0.3840000033378601
-0.12159328907728195 0.06689609587192535 0.38200002908706665
-0.11949112266302109 0.06672096997499466 0.38100001215934753
-0.11708937585353851 0.06637072563171387 0.3790000081062317
-0.11501062661409378 0.06619560718536377 0.37800002098083496
-0.11264166235923767 0.06584537029266357 0.3760000169277191
-0.11029141396284103 0.06549512594938278 0.37400001287460327
-0.10825011879205704 0.06532000750303268 0.37300002574920654
-0.10593265295028687 0.06496976315975189 0.3710000216960907
-0.1039147600531578 0.0647946447134018 0.3700000047683716
-0.1016300842165947 0.0644444078207016 0.3680000305175781
-0.09936410933732986 0.0640941634774208 0.3660000264644623
-0.09685005992650986 0.06356880068778992 0.3630000054836273
-0.09462624788284302 0.06321856379508972 0.36100003123283386
-0.09216370433568954 0.06269319355487823 0.3580000102519989
-0.08998201042413712 0.06234295293688774 0.35600000619888306
-0.08806713670492172 0.06216783449053764 0.35500001907348633
-0.08567482978105545 0.06164247542619705 0.35200002789497375
-0.08354932814836502 0.06129223108291626 0.3500000238418579
-0.08144254237413406 0.060941990464925766 0.34800001978874207
-0.07912515848875046 0.060416631400585175 0.3450000286102295
-0.0770605131983757 0.06006638705730438 0.34300002455711365
-0.07523459196090698 0.059891264885663986 0.34200000762939453
-0.0734180361032486 0.05971614643931389 0.3410000205039978
-0.0714002177119255 0.059365902096033096 0.33900001645088196
-0.06960707157850266 0.059190783649683 0.33800002932548523
-0.06762202084064484 0.058840543031692505 0.3360000252723694
-0.06565570831298828 0.05849030241370201 0.33400002121925354
-0.06390001624822617 0.058315176516771317 0.3330000042915344
-0.062153685837984085 0.05814005807042122 0.3320000171661377
-0.060416724532842636 0.05796493962407112 0.33100003004074097
-0.058689117431640625 0.057789817452430725 0.33000001311302185
-0.05679772049188614 0.05743957683444023 0.328000009059906
-0.05509352684020996 0.057264458388090134 0.3270000219345093
-0.053234901279211044 0.05691421404480934 0.32500001788139343
-0.0515541210770607 0.056739091873168945 0.3240000009536743
-0.04972827062010765 0.05638885498046875 0.32200002670288086
-0.04792114719748497 0.056038614362478256 0.320000022649765
-0.04613274708390236 0.055688370019197464 0.31800001859664917
-0.04450346902012825 0.05551324784755707 0.31700000166893005
-0.042747851461172104 0.05516301095485687 0.3150000274181366
-0.04101095348596573 0.05481276661157608 0.31300002336502075
-0.039419133216142654 0.054637644439935684 0.31200000643730164
-0.03771501034498215 0.05428740382194519 0.3100000023841858
-0.03614659979939461 0.05411228537559509 0.30900001525878906
-0.0345875546336174 0.053937166929244995 0.30800002813339233
-0.03303786739706993 0.0537620410323143 0.3070000112056732
-0.03149754926562309 0.0535869225859642 0.3060000240802765
-0.029868341982364655 0.05323668196797371 0.30400002002716064
-0.02835143357515335 0.05306155979633331 0.30300000309944153
-0.02675500325858593 0.05271132290363312 0.30100002884864807
-0.025177298113703728 0.052361078560352325 0.2990000247955322
-0.02369784191250801 0.05218595638871193 0.2980000078678131
-0.022152911871671677 0.05183571204543114 0.29600000381469727
-0.020696869120001793 0.05166059359908104 0.29500001668930054
-0.019315669313073158 0.05166059359908104 0.29500001668930054
-0.017873670905828476 0.05148547142744064 0.2939999997615814
-0.016441039741039276 0.051310352981090546 0.2930000126361847
-0.015017771162092686 0.05113523453474045 0.29200002551078796
-0.013603865168988705 0.05096011236310005 0.29100000858306885
-0.012199325487017632 0.050784993916749954 0.2900000214576721
-0.010766764171421528 0.05043474957346916 0.2880000174045563
-0.009352930821478367 0.05008450895547867 0.28600001335144043
-0.007957826368510723 0.049734268337488174 0.2840000092983246
-0.006581449881196022 0.04938402399420738 0.28200000524520874
-0.005261114798486233 0.04938402399420738 0.28200000524520874
-0.003926804754883051 0.049208905547857285 0.281000018119812
-0.002601858926936984 0.04903378337621689 0.2800000011920929
-0.0012862773146480322 0.04885866492986679 0.27900001406669617
1.9940394849982113e-05 0.04868354648351669 0.27800002694129944
0.0013167939614504576 0.048508420586586 0.2770000100135803
0.0026042836252599955 0.0483333021402359 0.2760000228881836
0.003882408607751131 0.048158179968595505 0.2750000059604645
0.005151170305907726 0.04798306152224541 0.27400001883506775
0.006410566624253988 0.04780793935060501 0.27300000190734863
0.007660600822418928 0.04763282090425491 0.2720000147819519
0.008901270106434822 0.047457702457904816 0.2710000276565552
0.01013257447630167 0.04728257656097412 0.27000001072883606
0.011354515329003334 0.04710745811462402 0.26900002360343933
0.01256709173321724 0.04693233594298363 0.2680000066757202
0.013770305551588535 0.04675721749663353 0.2670000195503235
0.014964153058826923 0.046582095324993134 0.26600000262260437
0.016148637980222702 0.046406976878643036 0.26500001549720764
0.01738937944173813 0.046406976878643036 0.26500001549720764
0.018559817224740982 0.04623185098171234 0.2639999985694885
0.0197208933532238 0.046056732535362244 0.2630000114440918
0.020872602239251137 0.045881614089012146 0.26200002431869507
0.02201494760811329 0.04570649191737175 0.26100000739097595
0.023058898746967316 0.04535624757409096 0.2590000033378601
0.024177836254239082 0.04518112912774086 0.2580000162124634
0.025287406519055367 0.045006006956100464 0.25699999928474426
0.026387616991996765 0.044830888509750366 0.25600001215934753
0.02747846022248268 0.04465577006340027 0.2550000250339508
0.028559938073158264 0.04448064789175987 0.2540000081062317
0.02963205613195896 0.044305529445409775 0.25300002098083496
0.030694805085659027 0.04413040354847908 0.25200000405311584
0.031874679028987885 0.04413040354847908 0.25200000405311584
0.0329233855009079 0.04395528510212898 0.2510000169277191
0.03396272659301758 0.043780162930488586 0.25
0.034992702305316925 0.04360504448413849 0.24900001287460327
0.03615853562951088 0.04360504448413849 0.24900001287460327
0.03717446327209473 0.04342992231249809 0.24800001084804535
0.03833560645580292 0.04342992231249809 0.24800001084804535
0.039496757090091705 0.04342992231249809 0.24800001084804535
0.04082184284925461 0.04360504448413849 0.24900001287460327
0.04215629771351814 0.043780162930488586 0.25
0.04350011795759201 0.04395528510212898 0.2510000169277191
0.044853292405605316 0.04413040354847908 0.25200000405311584
0.04639851301908493 0.04448064789175987 0.2540000081062317
0.047962456941604614 0.044830888509750366 0.25600001215934753
0.04954513534903526 0.04518112912774086 0.2580000162124634
0.05114653334021568 0.04553137347102165 0.2600000202655792
0.05256526544690132 0.04570649191737175 0.26100000739097595
0.053993359208106995 0.045881614089012146 0.26200002431869507
0.0554308146238327 0.046056732535362244 0.2630000114440918
0.056877635419368744 0.04623185098171234 0.2639999985694885
0.0 0.0 0.0
0.0 0.0 0.0
0.0 0.0 0.0
0.0 0.0 0.0
0.0 0.0 0.0
0.0 0.0 0.0
0.0 0.0 0.0
0.0 0.0 0.0
0.0 0.0 0.0
0.0 0.0 0.0
0.07768188416957855 0.05096011236310005 0.29100000858306885
0.07904435694217682 0.05096011236310005 0.29100000858306885
0.08040682971477509 0.05096011236310005 0.29100000858306885
0.08176930248737335 0.05096011236310005 0.29100000858306885
0.08284610509872437 0.050784993916749954 0.2900000214576721
0.08391353487968445 0.05060986801981926 0.289000004529953
0.0849716067314148 0.05043474957346916 0.2880000174045563
0.08632003515958786 0.05043474957346916 0.2880000174045563
0.08736404776573181 0.050259627401828766 0.28700000047683716
0.08839871734380722 0.05008450895547867 0.28600001335144043
0.0894240140914917 0.04990939050912857 0.2850000262260437
0.09043993800878525 0.049734268337488174 0.2840000092983246
0.09144651144742966 0.04955914989113808 0.28300002217292786
0.09277152270078659 0.04955914989113808 0.28300002217292786
0.09343155473470688 0.049208905547857285 0.281000018119812
0.09474720805883408 0.049208905547857285 0.281000018119812
0.09572099149227142 0.04903378337621689 0.2800000011920929
0.09668542444705963 0.04885866492986679 0.27900001406669617
0.0976404920220375 0.04868354648351669 0.27800002694129944
0.09858619421720505 0.048508420586586 0.2770000100135803
0.09988311678171158 0.048508420586586 0.2770000100135803
0.10081477463245392 0.0483333021402359 0.2760000228881836
0.10210701078176498 0.0483333021402359 0.2760000228881836
0.10302461683750153 0.048158179968595505 0.2750000059604645
0.10431218147277832 0.048158179968595505 0.2750000059604645
0.10598374903202057 0.0483333021402359 0.2760000228881836
0.10766466706991196 0.048508420586586 0.2770000100135803
0.10974831879138947 0.04885866492986679 0.27900001406669617
0.11344289034605026 0.04990939050912857 0.2850000262260437
0.11679089814424515 0.050784993916749954 0.2900000214576721
0.11977832019329071 0.05148547142744064 0.2939999997615814
0.12197902053594589 0.05183571204543114 0.29600000381469727
0.12419845163822174 0.05218595638871193 0.2980000078678131
0.12601517140865326 0.052361078560352325 0.2990000247955322
0.12826737761497498 0.05271132290363312 0.30100002884864807
0.13010747730731964 0.052886441349983215 0.3020000159740448
0.13282795250415802 0.05341180041432381 0.3050000071525574
0.13601671159267426 0.05411228537559509 0.30900001525878906
0.13968779146671295 0.05498788505792618 0.3140000104904175
0.14250659942626953 0.05551324784755707 0.31700000166893005
0.14626196026802063 0.05638885498046875 0.32200002670288086
0.1500641256570816 0.057264458388090134 0.3270000219345093
0.15205875039100647 0.05743957683444023 0.328000009059906
0.15546756982803345 0.05814005807042122 0.3320000171661377
0.0 0.0 0.0
0.17003978788852692 0.06234295293688774 0.35600000619888306
0.1731535643339157 0.06286831945180893 0.359000027179718
0.17580842971801758 0.06321856379508972 0.36100003123283386
0.1789737045764923 0.06374391913414001 0.36400002241134644
0.18167071044445038 0.0640941634774208 0.3660000264644623
0.18538852035999298 0.0647946447134018 0.3700000047683716
0.1891438215970993 0.06549512594938278 0.37400001287460327
0.19497820734977722 0.06689609587192535 0.38200002908706665
0.19985732436180115 0.06794681400060654 0.3880000114440918
0.2037530541419983 0.06864729523658752 0.3920000195503235
0.20768627524375916 0.06934778392314911 0.3960000276565552
0.21112780272960663 0.06987314671278 0.39900001883506775
0.2161988615989685 0.07092387229204178 0.4050000309944153
0.2207876294851303 0.07179947197437286 0.4100000262260437
0.22325043380260468 0.07197459042072296 0.41100001335144043
0.22572264075279236 0.07214971631765366 0.41200003027915955
0.2276516556739807 0.07214971631765366 0.41200003027915955
0.22958064079284668 0.07214971631765366 0.41200003027915955
0.23150965571403503 0.07214971631765366 0.41200003027915955
0.2334386557340622 0.07214971631765366 0.41200003027915955
0.2359389215707779 0.07232483476400375 0.4130000174045563
0.2384485900402069 0.07249995321035385 0.4140000343322754
0.2403869330883026 0.07249995321035385 0.4140000343322754
0.24291062355041504 0.07267507165670395 0.4150000214576721
0.2448536902666092 0.07267507165670395 0.4150000214576721
0.24679671227931976 0.07267507165670395 0.4150000214576721
0.24873977899551392 0.07267507165670395 0.4150000214576721
0.2500787675380707 0.07249995321035385 0.4140000343322754
0.2514083981513977 0.07232483476400375 0.4130000174045563
0.252728670835495 0.07214971631765366 0.41200003027915955
0.25403955578804016 0.07197459042072296 0.41100001335144043
0.2553410828113556 0.07179947197437286 0.4100000262260437
0.2566332519054413 0.07162434607744217 0.4090000092983246
0.25791606307029724 0.07144922763109207 0.40800002217292786
0.2598263621330261 0.07144922763109207 0.40800002217292786
0.26237812638282776 0.07162434607744217 0.4090000092983246
0.0 0.0 0.0
0.2779237627983093 0.07477652281522751 0.4270000159740448
0.2805785834789276 0.0749516412615776 0.4280000329017639
0.28456321358680725 0.0754770040512085 0.4310000240802765
0.28724607825279236 0.0756521224975586 0.4320000112056732
0.28926873207092285 0.0756521224975586 0.4320000112056732
0.29196566343307495 0.07582724839448929 0.43300002813339233
0.0 0.0 0.0
0.0 0.0 0.0
0.0 0.0 0.0
0.2910657823085785 0.07355067878961563 0.42000001668930054
0.29233452677726746 0.07337556034326553 0.4190000295639038
0.29148679971694946 0.07267507165670395 0.4150000214576721
0.2934298515319824 0.07267507165670395 0.4150000214576721
0.2953729033470154 0.07267507165670395 0.4150000214576721
0.30089807510375977 0.07355067878961563 0.42000001668930054
0.3014222979545593 0.07320043444633484 0.4180000126361847
0.0 0.0 0.0
0.0 0.0 0.0
0.0 0.0 0.0
0.0 0.0 0.0
0.0 0.0 0.0
0.3296472132205963 0.07705309242010117 0.4400000274181366
0.330953449010849 0.07687796652317047 0.4390000104904175
0.32997462153434753 0.07617749273777008 0.4350000321865082
0.33124804496765137 0.07600236684083939 0.43400001525878906
0.3317442238330841 0.0756521224975586 0.4320000112056732
0.3329942524433136 0.0754770040512085 0.4310000240802765
0.3295711874961853 0.07425116002559662 0.4240000247955322
0.335466206073761 0.0751267597079277 0.42900002002716064
0.33432817459106445 0.07442627847194672 0.42500001192092896
0.33631807565689087 0.07442627847194672 0.42500001192092896
0.33512386679649353 0.07372579723596573 0.42100003361701965
0.33469289541244507 0.07320043444633484 0.4180000126361847
0.340676873922348 0.07407603412866592 0.4230000078678131
0.3426573872566223 0.07407603412866592 0.4230000078678131
0.3454526662826538 0.07425116002559662 0.4240000247955322
0.3474378287792206 0.07425116002559662 0.4240000247955322
0.3502471148967743 0.07442627847194672 0.42500001192092896
0.3447778522968292 0.07285019010305405 0.41600000858306885
0.3475590646266937 0.07302531599998474 0.41700002551078796
0.3511877954006195 0.07337556034326553 0.4190000295639038
0.35399240255355835 0.07355067878961563 0.42000001668930054
0.3576539158821106 0.07390091568231583 0.4220000207424164
0.3613341152667999 0.07425116002559662 0.4240000247955322
0.3650330901145935 0.07460140436887741 0.42600002884864807
0.3678891956806183 0.07477652281522751 0.4270000159740448
0.0 0.0 0.0
0.3727585971355438 0.0749516412615776 0.4280000329017639
0.3730112910270691 0.07460140436887741 0.42600002884864807
0.36092111468315125 0.07179947197437286 0.4100000262260437
0.36195576190948486 0.07162434607744217 0.4090000092983246
0.36209139227867126 0.07127410918474197 0.40700000524520874
0.0 0.0 0.0
0.0 0.0 0.0
0.0 0.0 0.0
0.3896982967853546 0.0751267597079277 0.42900002002716064
0.3917068839073181 0.0751267597079277 0.42900002002716064
0.3946332335472107 0.0753018781542778 0.4300000071525574
0.39480164647102356 0.0749516412615776 0.4280000329017639
0.3968055546283722 0.0749516412615776 0.4280000329017639
0.39787766337394714 0.07477652281522751 0.4270000159740448
0.38582971692085266 0.07214971631765366 0.41200003027915955
0.3868175446987152 0.07197459042072296 0.41100001335144043
0.3906335234642029 0.07232483476400375 0.4130000174045563
0.39161670207977295 0.07214971631765366 0.41200003027915955
0.39163529872894287 0.07179947197437286 0.4100000262260437
0.38971537351608276 0.07109899073839188 0.406000018119812
0.39065173268318176 0.07092387229204178 0.4050000309944153
0.39254793524742126 0.07092387229204178 0.4050000309944153
0.0 0.0 0.0
0.0 0.0 0.0
0.0 0.0 0.0
0.0 0.0 0.0
-0.0 0.0 0.0
-0.0 0.0 0.0
-0.0 0.0 0.0
-0.0 0.0 0.0
-0.0 0.0 0.0
-0.0 0.0 0.0
-0.0 0.0 0.0
-0.0 0.0 0.0
-0.0 0.0 0.0
-0.0 0.0 0.0
-0.0 0.0 0.0
0.0 0.0 0.0
0.0 0.0 0.0
0.0 0.0 0.0
0.0 0.0 0.0
0.0 0.0 0.0
-0.0 0.0 0.0
-0.0 0.0 0.0
-0.0 0.0 0.0
-0.0 0.0 0.0
-0.0 0.0 0.0
-0.0 0.0 0.0
-0.0 0.0 0.0
-0.0 0.0 0.0
-0.0 0.0 0.0
-0.0 0.0 0.0
-0.0 0.0 0.0
-0.0 0.0 0.0
-0.0 0.0 0.0
-0.0 0.0 0.0
-0.0 0.0 0.0
-0.0 0.0 0.0
-0.0 0.0 0.0
-0.0 0.0 0.0
-0.0 0.0 0.0
-0.0 0.0 0.0
-0.0 0.0 0.0
-0.0 0.0 0.0
-0.0 0.0 0.0
-0.0 0.0 0.0
-0.0 0.0 0.0
-0.0 0.0 0.0
0.0 0.0 0.0
0.0 0.0 0.0
0.0 0.0 0.0
0.0 0.0 0.0
0.0 0.0 0.0
0.0 0.0 0.0
0.0 0.0 0.0
0.0 0.0 0.0
0.0 0.0 0.0
0.0 0.0 0.0
0.0 0.0 0.0
-0.30742594599723816 0.07425851374864578 0.4130000174045563
-0.3091907203197479 0.0751575231552124 0.4180000126361847
-0.3123786747455597 0.07641614228487015 0.42500001192092896
-0.3111191391944885 0.07659594714641571 0.42600002884864807
-0.30985021591186523 0.07677575200796127 0.4270000159740448
-0.308571994304657 0.07695555686950684 0.4280000329017639
-0.30656805634498596 0.07695555686950684 0.4280000329017639
-0.29815974831581116 0.07533732801675797 0.4190000295639038
-0.2954910695552826 0.0751575231552124 0.4180000126361847
-0.2907250225543976 0.07443831861019135 0.4140000343322754
-0.2866940200328827 0.07389890402555466 0.41100001335144043
-0.2840768098831177 0.07371910661458969 0.4100000262260437
-0.2828453481197357 0.07389890402555466 0.41100001335144043
-0.2816045582294464 0.07407870888710022 0.41200003027915955
-0.280354380607605 0.07425851374864578 0.4130000174045563
-0.2790948748588562 0.07443831861019135 0.4140000343322754
-0.2778259515762329 0.07461811602115631 0.4150000214576721
-0.2765476405620575 0.07479792088270187 0.41600000858306885
-0.2752600312232971 0.07497772574424744 0.41700002551078796
-0.275273859500885 0.07551713287830353 0.42000001668930054
-0.27265670895576477 0.07533732801675797 0.4190000295639038
-0.27069491147994995 0.07533732801675797 0.4190000295639038
-0.26873311400413513 0.07533732801675797 0.4190000295639038
-0.2667713761329651 0.07533732801675797 0.4190000295639038
-0.26480957865715027 0.07533732801675797 0.4190000295639038
-0.26284781098365784 0.07533732801675797 0.4190000295639038
-0.2608860433101654 0.07533732801675797 0.4190000295639038
-0.25954219698905945 0.07551713287830353 0.42000001668930054
-0.25818905234336853 0.07569693773984909 0.42100003361701965
-0.256217896938324 0.07569693773984909 0.42100003361701965
-0.25364285707473755 0.07551713287830353 0.42000001668930054
-0.25167638063430786 0.07551713287830353 0.42000001668930054
-0.24970991909503937 0.07551713287830353 0.42000001668930054
-0.24656373262405396 0.0751575231552124 0.4180000126361847
-0.24285109341144562 0.07461811602115631 0.4150000214576721
-0.2397470474243164 0.07425851374864578 0.4130000174045563
-0.23723754286766052 0.07407870888710022 0.41200003027915955
-0.23416626453399658 0.07371910661458969 0.4100000262260437
-0.23224663734436035 0.07371910661458969 0.4100000262260437
-0.2308887541294098 0.07389890402555466 0.41100001335144043
-0.22896446287631989 0.07389890402555466 0.41100001335144043
-0.22759254276752472 0.07407870888710022 0.41200003027915955
-0.22566354274749756 0.07407870888710022 0.41200003027915955
-0.0 0.0 0.0
-0.22288227081298828 0.07443831861019135 0.4140000343322754
-0.2220112383365631 0.07479792088270187 0.41600000858306885
-0.22059252858161926 0.07497772574424744 0.41700002551078796
-0.22073738276958466 0.07569693773984909 0.42100003361701965
-0.2198055237531662 0.07605654001235962 0.4230000078678131
-0.21988481283187866 0.07677575200796127 0.4270000159740448
-0.21941637992858887 0.07731515914201736 0.4300000071525574
-0.218414306640625 0.0776747614145279 0.4320000112056732
-0.21589075028896332 0.07749496400356293 0.4310000240802765
-0.21337656676769257 0.07731515914201736 0.4300000071525574
-0.2049732357263565 0.07497772574424744 0.41700002551078796
-0.203020840883255 0.07497772574424744 0.41700002551078796
-0.19913971424102783 0.07425851374864578 0.4130000174045563
-0.1972060203552246 0.07425851374864578 0.4130000174045563
-0.1947995275259018 0.07407870888710022 0.41200003027915955
-0.19287052750587463 0.07407870888710022 0.41200003027915955
-0.19047807157039642 0.07389890402555466 0.41100001335144043
-0.18809498846530914 0.07371910661458969 0.4100000262260437
-0.18617534637451172 0.07371910661458969 0.4100000262260437
-0.1842557191848755 0.07371910661458969 0.4100000262260437
-0.18233607709407806 0.07371910661458969 0.4100000262260437
-0.18085648119449615 0.07389890402555466 0.41100001335144043
-0.17893216013908386 0.07389890402555466 0.41100001335144043
-0.17700783908367157 0.07389890402555466 0.41100001335144043
-0.17508351802825928 0.07389890402555466 0.41100001335144043
-0.17273789644241333 0.07371910661458969 0.4100000262260437
-0.1708182692527771 0.07371910661458969 0.4100000262260437
-0.16848666965961456 0.07353930175304413 0.4090000092983246
-0.1657571792602539 0.073179692029953 0.40700000524520874
-0.1634490042924881 0.07299989461898804 0.406000018119812
-0.16115020215511322 0.07282008975744247 0.4050000309944153
-0.15886075794696808 0.07264028489589691 0.40400001406669617
-0.15735775232315063 0.07282008975744247 0.4050000309944153
-0.15546151995658875 0.07282008975744247 0.4050000309944153
-0.15356530249118805 0.07282008975744247 0.4050000309944153
-0.1509200930595398 0.07246048748493195 0.40300002694129944
-0.14866341650485992 0.07228068262338638 0.4020000100135803
-0.14605097472667694 0.07192107290029526 0.4000000059604645
-0.1438177078962326 0.07174127548933029 0.39900001883506775
-0.1415938287973404 0.07156147807836533 0.398000031709671
-0.13937929272651672 0.07138166576623917 0.3970000147819519
-0.13717412948608398 0.0712018683552742 0.3960000276565552
-0.13463659584522247 0.07084226608276367 0.39400002360343933
-0.13211779296398163 0.07048265635967255 0.3920000195503235
-0.12928538024425507 0.06994324922561646 0.3890000283718109
-0.1264810562133789 0.06940383464097977 0.38600000739097595
-0.12370482087135315 0.06886443495750427 0.3830000162124634
-0.12127497792243958 0.06850482523441315 0.38100001215934753
-0.11917749792337418 0.06832502782344818 0.3800000250339508
-0.11708937585353851 0.06814522296190262 0.3790000081062317
-0.11501062661409378 0.06796541810035706 0.37800002098083496
-0.11264166235923767 0.06760581582784653 0.3760000169277191
-0.11058631539344788 0.06742601096630096 0.3750000298023224
-0.10854033380746841 0.0672462061047554 0.37400001287460327
-0.10621818155050278 0.06688660383224487 0.3720000088214874
-0.1039147600531578 0.06652699410915375 0.3700000047683716
-0.1016300842165947 0.06616739183664322 0.3680000305175781
-0.09909261763095856 0.06562798470258713 0.36500000953674316
-0.09685005992650986 0.065268374979496 0.3630000054836273
-0.09462624788284302 0.06490877270698547 0.36100003123283386
-0.09242115169763565 0.06454917043447495 0.359000027179718
-0.09023477137088776 0.06418956071138382 0.3570000231266022
-0.08806713670492172 0.06382995843887329 0.35500001907348633
-0.08591821789741516 0.06347034871578217 0.3530000150203705
-0.08378803730010986 0.06311074644327164 0.35100001096725464
-0.08144254237413406 0.06257133930921555 0.34800001978874207
-0.07912515848875046 0.062031932175159454 0.3450000286102295
-0.0770605131983757 0.06167232617735863 0.34300002455711365
-0.07523459196090698 0.061492521315813065 0.34200000762939453
-0.07320272922515869 0.06113291531801224 0.3400000035762787
-0.0714002177119255 0.06095311418175697 0.33900001645088196
-0.06940113008022308 0.060593508183956146 0.3370000123977661
-0.06762202084064484 0.06041370704770088 0.3360000252723694
-0.06565570831298828 0.060054101049900055 0.33400002121925354
-0.06390001624822617 0.05987429618835449 0.3330000042915344
-0.06196647882461548 0.059514693915843964 0.33100003004074097
-0.0602341927587986 0.0593348890542984 0.33000001311302185
-0.05851127579808235 0.05915508791804314 0.3290000259876251
-0.05679772049188614 0.058975283056497574 0.328000009059906
-0.05509352684020996 0.05879548192024231 0.3270000219345093
-0.053234901279211044 0.05843587592244148 0.32500001788139343
-0.0515541210770607 0.05825607106089592 0.3240000009536743
-0.04972827062010765 0.05789646878838539 0.32200002670288086
-0.04792114719748497 0.057536862790584564 0.320000022649765
-0.04613274708390236 0.05717725679278374 0.31800001859664917
-0.04450346902012825 0.056997451931238174 0.31700000166893005
-0.042883556336164474 0.05681765079498291 0.3160000145435333
-0.04114197939634323 0.05645804479718208 0.3140000104904175
-0.039419133216142654 0.056098438799381256 0.31200000643730164
-0.03771501034498215 0.05573883280158043 0.3100000023841858
-0.03614659979939461 0.055559031665325165 0.30900001525878906
-0.03447525575757027 0.05519942566752434 0.3070000112056732
-0.03293025493621826 0.055019624531269073 0.3060000240802765
-0.03149754926562309 0.055019624531269073 0.3060000240802765
-0.02996659278869629 0.05483981966972351 0.3050000071525574
-0.02835143357515335 0.054480213671922684 0.30300000309944153
-0.02675500325858593 0.054120615124702454 0.30100002884864807
-0.025177298113703728 0.05376100912690163 0.2990000247955322
-0.02369784191250801 0.053581200540065765 0.2980000078678131
-0.022152911871671677 0.05322159454226494 0.29600000381469727
-0.020767027512192726 0.05322159454226494 0.29600000381469727
-0.019315669313073158 0.05304179713129997 0.29500001668930054
-0.017873670905828476 0.05286198854446411 0.2939999997615814
-0.016441039741039276 0.05268218740820885 0.2930000126361847
-0.015017771162092686 0.05250238999724388 0.29200002551078796
-0.013603865168988705 0.05232258141040802 0.29100000858306885
-0.012199325487017632 0.052142783999443054 0.2900000214576721
-0.010766764171421528 0.05178317800164223 0.2880000174045563
-0.009352930821478367 0.0514235720038414 0.28600001335144043
-0.007957826368510723 0.05106396600604057 0.2840000092983246
-0.006604788824915886 0.05088416486978531 0.28300002217292786
-0.005261114798486233 0.050704360008239746 0.28200000524520874
-0.003926804754883051 0.05052455887198448 0.281000018119812
-0.0026111514307558537 0.05052455887198448 0.281000018119812
-0.0012908875942230225 0.05034475401043892 0.2800000011920929
2.0012123059132136e-05 0.050164952874183655 0.27900001406669617
0.0013167939614504576 0.04980534687638283 0.2770000100135803
0.0026042836252599955 0.049625545740127563 0.2760000228881836
0.003882408607751131 0.049445740878582 0.2750000059604645
0.005151170305907726 0.049265939742326736 0.27400001883506775
0.006410566624253988 0.049086134880781174 0.27300000190734863
0.007660600822418928 0.04890633374452591 0.2720000147819519
0.008901270106434822 0.048726532608270645 0.2710000276565552
0.01013257447630167 0.04854672774672508 0.27000001072883606
0.011354515329003334 0.04836692661046982 0.26900002360343933
0.01256709173321724 0.048187121748924255 0.2680000066757202
0.013770305551588535 0.04800732061266899 0.2670000195503235
0.014964153058826923 0.04782751575112343 0.26600000262260437
0.016148637980222702 0.047647714614868164 0.26500001549720764
0.01738937944173813 0.047647714614868164 0.26500001549720764
0.018559817224740982 0.0474679097533226 0.2639999985694885
0.0197208933532238 0.04728810861706734 0.2630000114440918
0.02079293504357338 0.04692850261926651 0.26100000739097595
0.021930599585175514 0.046748701483011246 0.2600000202655792
0.023058898746967316 0.04656889662146568 0.2590000033378601
0.024177836254239082 0.04638909548521042 0.2580000162124634
0.02518901415169239 0.04602948948740959 0.25600001215934753
0.026387616991996765 0.04602948948740959 0.25600001215934753
0.02747846022248268 0.04584968835115433 0.2550000250339508
0.028559938073158264 0.045669883489608765 0.2540000081062317
0.02963205613195896 0.0454900823533535 0.25300002098083496
0.030694805085659027 0.04531027749180794 0.25200000405311584
0.03174819424748421 0.04513047635555267 0.2510000169277191
0.032792214304208755 0.04495067149400711 0.25
0.03382687643170357 0.044770870357751846 0.24900001287460327
0.034992702305316925 0.044770870357751846 0.24900001287460327
0.036013320088386536 0.04459106922149658 0.24800001084804535
0.03717446327209473 0.04459106922149658 0.24800001084804535
0.03833560645580292 0.04459106922149658 0.24800001084804535
0.039496757090091705 0.04459106922149658 0.24800001084804535
0.040657900273799896 0.04459106922149658 0.24800001084804535
0.04198767617344856 0.044770870357751846 0.24900001287460327
0.04332680627703667 0.04495067149400711 0.25
0.044853292405605316 0.04531027749180794 0.25200000405311584
0.04621584340929985 0.0454900823533535 0.25300002098083496
0.047775108367204666 0.04584968835115433 0.2550000250339508
0.04935309663414955 0.046209290623664856 0.25699999928474426
0.0509498156607151 0.04656889662146568 0.2590000033378601
0.05256526544690132 0.04692850261926651 0.26100000739097595
0.053993359208106995 0.04710830748081207 0.26200002431869507
0.0554308146238327 0.04728810861706734 0.2630000114440918
0.056877635419368744 0.0474679097533226 0.2639999985694885
0.058113694190979004 0.0474679097533226 0.2639999985694885
0.0 0.0 0.0
0.0 0.0 0.0
0.0 0.0 0.0
0.0 0.0 0.0
0.0 0.0 0.0
0.0 0.0 0.0
0.0 0.0 0.0
0.0 0.0 0.0
0.0 0.0 0.0
0.07768188416957855 0.05232258141040802 0.29100000858306885
0.07904435694217682 0.05232258141040802 0.29100000858306885
0.08013051748275757 0.052142783999443054 0.2900000214576721
0.08148831129074097 0.052142783999443054 0.2900000214576721
0.08284610509872437 0.052142783999443054 0.2900000214576721
0.08391353487968445 0.05196297541260719 0.289000004529953
0.0849716067314148 0.05178317800164223 0.2880000174045563
0.08632003515958786 0.05178317800164223 0.2880000174045563
0.08736404776573181 0.051603369414806366 0.28700000047683716
0.08839871734380722 0.0514235720038414 0.28600001335144043
0.0894240140914917 0.051243770867586136 0.2850000262260437
0.09043993800878525 0.05106396600604057 0.2840000092983246
0.09144651144742966 0.05088416486978531 0.28300002217292786
0.09277152270078659 0.05088416486978531 0.28300002217292786
0.09343155473470688 0.05052455887198448 0.281000018119812
0.09474720805883408 0.05052455887198448 0.281000018119812
0.09572099149227142 0.05034475401043892 0.2800000011920929
0.09668542444705963 0.050164952874183655 0.27900001406669617
0.0976404920220375 0.04998515173792839 0.27800002694129944
0.09858619421720505 0.04980534687638283 0.2770000100135803
0.09988311678171158 0.04980534687638283 0.2770000100135803
0.10081477463245392 0.049625545740127563 0.2760000228881836
0.10210701078176498 0.049625545740127563 0.2760000228881836
0.10302461683750153 0.049445740878582 0.2750000059604645
0.1046915054321289 0.049625545740127563 0.2760000228881836
0.10598374903202057 0.049625545740127563 0.2760000228881836
0.10766466706991196 0.04980534687638283 0.2770000100135803
0.11014167219400406 0.05034475401043892 0.2800000011920929
0.11344289034605026 0.051243770867586136 0.2850000262260437
0.11679089814424515 0.052142783999443054 0.2900000214576721
0.11977832019329071 0.05286198854446411 0.2939999997615814
0.12197902053594589 0.05322159454226494 0.29600000381469727
0.12378168106079102 0.0534014031291008 0.2970000207424164
0.12559370696544647 0.053581200540065765 0.2980000078678131
0.12784123420715332 0.05394080653786659 0.30000001192092896
0.13010747730731964 0.05430041253566742 0.3020000159740448
0.13282795250415802 0.05483981966972351 0.3050000071525574
0.13645689189434052 0.05573883280158043 0.3100000023841858
0.14013266563415527 0.056637849658727646 0.3150000274181366
0.14340569078922272 0.057357057929039 0.3190000057220459
0.14626196026802063 0.05789646878838539 0.32200002670288086
0.14914630353450775 0.05843587592244148 0.32500001788139343
0.1506679654121399 0.05843587592244148 0.32500001788139343
0.0 0.0 0.0
0.0 0.0 0.0
0.1714727133512497 0.06454917043447495 0.359000027179718
0.17411822080612183 0.06490877270698547 0.36100003123283386
0.17678242921829224 0.065268374979496 0.3630000054836273
0.1794653832912445 0.06562798470258713 0.36500000953674316
0.18216706812381744 0.06598758697509766 0.367000013589859
0.18488748371601105 0.06634719669818878 0.36900001764297485
0.18813234567642212 0.06688660383224487 0.3720000088214874
0.1939573734998703 0.06832502782344818 0.3800000250339508
0.20037242770195007 0.06994324922561646 0.3890000283718109
0.2037530541419983 0.07048265635967255 0.3920000195503235
0.20768627524375916 0.0712018683552742 0.3960000276565552
0.2105986624956131 0.07156147807836533 0.398000031709671
0.21459738910198212 0.07228068262338638 0.4020000100135803
0.21863360702991486 0.07299989461898804 0.406000018119812
0.22107768058776855 0.073179692029953 0.40700000524520874
0.22298328578472137 0.073179692029953 0.40700000524520874
0.224888876080513 0.073179692029953 0.40700000524520874
0.2262372225522995 0.07299989461898804 0.406000018119812
0.22813814878463745 0.07299989461898804 0.406000018119812
0.2300390601158142 0.07299989461898804 0.406000018119812
0.2325112372636795 0.073179692029953 0.40700000524520874
0.23499280214309692 0.07335949689149857 0.40800002217292786
0.2374836951494217 0.07353930175304413 0.4090000092983246
0.23998400568962097 0.07371910661458969 0.4100000262260437
0.2419036477804184 0.07371910661458969 0.4100000262260437
0.2444179505109787 0.07389890402555466 0.41100001335144043
0.24634228646755219 0.07389890402555466 0.41100001335144043
0.2476625293493271 0.07371910661458969 0.4100000262260437
0.2495821863412857 0.07371910661458969 0.4100000262260437
0.2508884072303772 0.07353930175304413 0.4090000092983246
0.25218525528907776 0.07335949689149857 0.40800002217292786
0.25409552454948425 0.07335949689149857 0.40800002217292786
0.2547508478164673 0.07299989461898804 0.406000018119812
0.25601962208747864 0.07282008975744247 0.4050000309944153
0.25727903842926025 0.07264028489589691 0.40400001406669617
0.2591705620288849 0.07264028489589691 0.40400001406669617
0.2630006968975067 0.073179692029953 0.40700000524520874
0.2662080228328705 0.07353930175304413 0.4090000092983246
0.0 0.0 0.0
0.28126204013824463 0.07659594714641571 0.42600002884864807
0.2865811586380005 0.07749496400356293 0.4310000240802765
0.28926873207092285 0.0776747614145279 0.4320000112056732
0.0 0.0 0.0
0.0 0.0 0.0
0.0 0.0 0.0
0.0 0.0 0.0
0.28760072588920593 0.07461811602115631 0.4150000214576721
0.28814834356307983 0.07425851374864578 0.4130000174045563
0.29078441858291626 0.07443831861019135 0.4140000343322754
0.2913086712360382 0.07407870888710022 0.41200003027915955
0.29466116428375244 0.07443831861019135 0.4140000343322754
0.0 0.0 0.0
0.2949323356151581 0.07353930175304413 0.4090000092983246
0.29539573192596436 0.073179692029953 0.40700000524520874
0.29437944293022156 0.07246048748493195 0.40300002694129944
0.2918553948402405 0.07138166576623917 0.3970000147819519
0.2929743230342865 0.0712018683552742 0.3960000276565552
0.0 0.0 0.0
0.0 0.0 0.0
0.0 0.0 0.0
0.0 0.0 0.0
0.0 0.0 0.0
0.0 0.0 0.0
0.0 0.0 0.0
0.0 0.0 0.0
0.0 0.0 0.0
0.32410168647766113 0.07407870888710022 0.41200003027915955
0.3125779628753662 0.07102206349372864 0.39500001072883606
0.31442734599113464 0.07102206349372864 0.39500001072883606
0.3186788856983185 0.07156147807836533 0.398000031709671
0.32295846939086914 0.07210087776184082 0.4010000228881836
0.3256460428237915 0.07228068262338638 0.4020000100135803
0.3283429741859436 0.07246048748493195 0.40300002694129944
0.3318686783313751 0.07282008975744247 0.4050000309944153
0.33788546919822693 0.07371910661458969 0.4100000262260437
0.3414627015590668 0.07407870888710022 0.41200003027915955
0.3450586497783661 0.07443831861019135 0.4140000343322754
0.3486733138561249 0.07479792088270187 0.41600000858306885
0.3523067235946655 0.0751575231552124 0.4180000126361847
0.35595884919166565 0.07551713287830353 0.42000001668930054
0.35962972044944763 0.07587673515081406 0.4220000207424164
0.36246243119239807 0.07605654001235962 0.4230000078678131
0.36013510823249817 0.0751575231552124 0.4180000126361847
0.0 0.0 0.0
0.0 0.0 0.0
0.35287216305732727 0.07246048748493195 0.40300002694129944
0.3538787364959717 0.07228068262338638 0.4020000100135803
0.34868112206459045 0.07084226608276367 0.39400002360343933
0.3567534387111664 0.07210087776184082 0.4010000228881836
0.35773658752441406 0.07192107290029526 0.4000000059604645
0.0 0.0 0.0
0.0 0.0 0.0
0.0 0.0 0.0
0.3770977556705475 0.07425851374864578 0.4130000174045563
0.0 0.0 0.0
0.0 0.0 0.0
0.0 0.0 0.0
0.3792417049407959 0.073179692029953 0.40700000524520874
0.3745919167995453 0.07192107290029526 0.4000000059604645
0.37740594148635864 0.07210087776184082 0.4010000228881836
0.38022923469543457 0.07228068262338638 0.4020000100135803
0.38211143016815186 0.07228068262338638 0.4020000100135803
0.3830384314060211 0.07210087776184082 0.4010000228881836
0.38587579131126404 0.07228068262338638 0.4020000100135803
0.3877579867839813 0.07228068262338638 0.4020000100135803
0.3896401524543762 0.07228068262338638 0.4020000100135803
0.0 0.0 0.0
0.0 0.0 0.0
0.0 0.0 0.0
0.0 0.0 0.0
-0.0 0.0 0.0
-0.0 0.0 0.0
-0.0 0.0 0.0
-0.0 0.0 0.0
-0.0 0.0 0.0
-0.0 0.0 0.0
-0.0 0.0 0.0
-0.0 0.0 0.0
-0.0 0.0 0.0
-0.0 0.0 0.0
0.0 0.0 0.0
0.0 0.0 0.0
0.0 0.0 0.0
0.0 0.0 0.0
0.0 0.0 0.0
0.0 0.0 0.0
0.0 0.0 0.0
-0.0 0.0 0.0
-0.0 0.0 0.0
-0.0 0.0 0.0
-0.0 0.0 0.0
-0.0 0.0 0.0
-0.0 0.0 0.0
-0.0 0.0 0.0
-0.0 0.0 0.0
-0.0 0.0 0.0
-0.0 0.0 0.0
-0.0 0.0 0.0
-0.0 0.0 0.0
-0.0 0.0 0.0
-0.0 0.0 0.0
-0.0 0.0 0.0
-0.0 0.0 0.0
-0.0 0.0 0.0
-0.0 0.0 0.0
-0.0 0.0 0.0
-0.0 0.0 0.0
-0.0 0.0 0.0
-0.0 0.0 0.0
-0.0 0.0 0.0
-0.0 0.0 0.0
0.0 0.0 0.0
0.0 0.0 0.0
0.0 0.0 0.0
0.0 0.0 0.0
0.0 0.0 0.0
0.0 0.0 0.0
0.0 0.0 0.0
0.0 0.0 0.0
0.0 0.0 0.0
0.0 0.0 0.0
0.0 0.0 0.0
-0.3003709614276886 0.07397837936878204 0.4010000228881836
-0.29923784732818604 0.07416285574436188 0.4020000100135803
-0.29809534549713135 0.0743473470211029 0.40300002694129944
-0.2969434857368469 0.07453183084726334 0.40400001406669617
-0.0 0.0 0.0
-0.29316040873527527 0.07453183084726334 0.40400001406669617
-0.2905479073524475 0.0743473470211029 0.40300002694129944
-0.29510757327079773 0.07600770890712738 0.41200003027915955
-0.2853509783744812 0.07397837936878204 0.4010000228881836
-0.2841804027557373 0.07416285574436188 0.4020000100135803
-0.2830004394054413 0.0743473470211029 0.40300002694129944
-0.2832062542438507 0.0749007984995842 0.406000018119812
-0.2819981873035431 0.07508528232574463 0.40700000524520874
-0.28215718269348145 0.07563874125480652 0.4100000262260437
-0.2809210419654846 0.07582322508096695 0.41100001335144043
-0.27967557311058044 0.07600770890712738 0.41200003027915955
-0.27842071652412415 0.07619219273328781 0.4130000174045563
-0.2771564722061157 0.07637668401002884 0.4140000343322754
-0.27521809935569763 0.07637668401002884 0.4140000343322754
-0.273939847946167 0.07656116038560867 0.4150000214576721
-0.27265220880508423 0.0767456442117691 0.41600000858306885
-0.2713552415370941 0.07693013548851013 0.41700002551078796
-0.2700488567352295 0.07711461186408997 0.4180000126361847
-0.26809173822402954 0.07711461186408997 0.4180000126361847
-0.26549798250198364 0.07693013548851013 0.41700002551078796
-0.26354557275772095 0.07693013548851013 0.41700002551078796
-0.26033851504325867 0.07656116038560867 0.4150000214576721
-0.257772833108902 0.07637668401002884 0.4140000343322754
-0.25459855794906616 0.07600770890712738 0.41200003027915955
-0.25512266159057617 0.0767456442117691 0.41600000858306885
-0.25560930371284485 0.07748358696699142 0.42000001668930054
-0.2530389428138733 0.077299103140831 0.4190000295639038
-0.2504779100418091 0.07711461186408997 0.4180000126361847
-0.24852082133293152 0.07711461186408997 0.4180000126361847
-0.24243468046188354 0.07582322508096695 0.41100001335144043
-0.23933997750282288 0.07545424997806549 0.4090000092983246
-0.2374250441789627 0.07545424997806549 0.4090000092983246
-0.23378263413906097 0.0749007984995842 0.406000018119812
-0.23188170790672302 0.0749007984995842 0.406000018119812
-0.22998081147670746 0.0749007984995842 0.406000018119812
-0.2280799001455307 0.0749007984995842 0.406000018119812
-0.22617900371551514 0.0749007984995842 0.406000018119812
-0.22427809238433838 0.0749007984995842 0.406000018119812
-0.22237716615200043 0.0749007984995842 0.406000018119812
-0.22047626972198486 0.0749007984995842 0.406000018119812
-0.21965208649635315 0.07526977360248566 0.40800002217292786
-0.21774180233478546 0.07526977360248566 0.40800002217292786
-0.21636053919792175 0.07545424997806549 0.4090000092983246
-0.21759147942066193 0.07656116038560867 0.4150000214576721
-0.21149136126041412 0.07508528232574463 0.40700000524520874
-0.0 0.0 0.0
-0.0 0.0 0.0
-0.0 0.0 0.0
-0.0 0.0 0.0
-0.0 0.0 0.0
-0.19465084373950958 0.07305595278739929 0.3960000276565552
-0.19425734877586365 0.07360940426588058 0.39900001883506775
-0.19287137687206268 0.07379388809204102 0.4000000059604645
-0.19243106245994568 0.0743473470211029 0.40300002694129944
-0.1910170018672943 0.07453183084726334 0.40400001406669617
-0.1895935982465744 0.07471631467342377 0.4050000309944153
-0.18816082179546356 0.0749007984995842 0.406000018119812
-0.1862599104642868 0.0749007984995842 0.406000018119812
-0.18435899913311005 0.0749007984995842 0.406000018119812
-0.1824580878019333 0.0749007984995842 0.406000018119812
-0.18055719137191772 0.0749007984995842 0.406000018119812
-0.17865628004074097 0.0749007984995842 0.406000018119812
-0.1767553687095642 0.0749007984995842 0.406000018119812
-0.17485445737838745 0.0749007984995842 0.406000018119812
-0.17252756655216217 0.07471631467342377 0.4050000309944153
-0.17021001875400543 0.07453183084726334 0.40400001406669617
-0.16790185868740082 0.0743473470211029 0.40300002694129944
-0.16519109904766083 0.07397837936878204 0.4010000228881836
-0.16290631890296936 0.07379388809204102 0.4000000059604645
-0.16063092648983002 0.07360940426588058 0.39900001883506775
-0.1583648920059204 0.07342492789030075 0.398000031709671
-0.15650144219398499 0.07342492789030075 0.398000031709671
-0.15502652525901794 0.07360940426588058 0.39900001883506775
-0.15315838158130646 0.07360940426588058 0.39900001883506775
-0.15129025280475616 0.07360940426588058 0.39900001883506775
-0.14942212402820587 0.07360940426588058 0.39900001883506775
-0.14718417823314667 0.07342492789030075 0.398000031709671
-0.1449555903673172 0.07324043661355972 0.3970000147819519
-0.14273637533187866 0.07305595278739929 0.3960000276565552
-0.14052651822566986 0.07287146896123886 0.39500001072883606
-0.13832604885101318 0.07268698513507843 0.39400002360343933
-0.13648132979869843 0.07268698513507843 0.39400002360343933
-0.13429486751556396 0.0725024938583374 0.3930000066757202
-0.13178077340126038 0.07213353365659714 0.39100003242492676
-0.1289530247449875 0.07158007472753525 0.3880000114440918
-0.1261533796787262 0.07102662324905396 0.3850000202655792
-0.12370482087135315 0.0706576481461525 0.3830000162124634
-0.12127497792243958 0.07028868049383163 0.38100001215934753
-0.11917749792337418 0.0701041966676712 0.3800000250339508
-0.11708937585353851 0.06991971284151077 0.3790000081062317
-0.11501062661409378 0.06973522901535034 0.37800002098083496
-0.11294123530387878 0.06955073773860931 0.37700000405311584
-0.11088120937347412 0.06936626136302948 0.3760000169277191
-0.10883054882287979 0.06918177753686905 0.3750000298023224
-0.10650371760129929 0.06881280243396759 0.37300002574920654
-0.1039147600531578 0.0682593509554863 0.3700000047683716
-0.1016300842165947 0.06789038330316544 0.3680000305175781
-0.09909261763095856 0.06733692437410355 0.36500000953674316
-0.09658326208591461 0.06678347289562225 0.3620000183582306
-0.09436412155628204 0.06641450524330139 0.36000001430511475
-0.09216370433568954 0.06604553014039993 0.3580000102519989
-0.09023477137088776 0.0658610463142395 0.3570000231266022
-0.0883152112364769 0.06567656248807907 0.35600000619888306
-0.08591821789741516 0.06512311100959778 0.3530000150203705
-0.08378803730010986 0.06475413590669632 0.35100001096725464
-0.08144254237413406 0.06420068442821503 0.34800001978874207
-0.07912515848875046 0.06364723294973373 0.3450000286102295
-0.0770605131983757 0.06327826529741287 0.34300002455711365
-0.07523459196090698 0.06309377402067184 0.34200000762939453
-0.07320272922515869 0.06272480636835098 0.3400000035762787
-0.0714002177119255 0.06254032254219055 0.33900001645088196
-0.06940113008022308 0.06217135116457939 0.3370000123977661
-0.06742076575756073 0.06180238351225853 0.33500000834465027
-0.06545913219451904 0.06143341213464737 0.3330000042915344
-0.06370812654495239 0.06124893203377724 0.3320000171661377
-0.06196647882461548 0.061064448207616806 0.33100003004074097
-0.0602341927587986 0.06087996065616608 0.33000001311302185
-0.05851127579808235 0.060695476830005646 0.3290000259876251
-0.05679772049188614 0.060510989278554916 0.328000009059906
-0.05509352684020996 0.060326509177684784 0.3270000219345093
-0.053234901279211044 0.059957537800073624 0.32500001788139343
-0.0515541210770607 0.059773050248622894 0.3240000009536743
-0.04972827062010765 0.05940408632159233 0.32200002670288086
-0.04792114719748497 0.05903511494398117 0.320000022649765
-0.04613274708390236 0.05866614356637001 0.31800001859664917
-0.04450346902012825 0.05848165601491928 0.31700000166893005
-0.042883556336164474 0.05829717591404915 0.3160000145435333
-0.04114197939634323 0.05792820453643799 0.3140000104904175
-0.03954547643661499 0.05774372071027756 0.31300002336502075
-0.037836674600839615 0.057374753057956696 0.3110000193119049
-0.03614659979939461 0.057005781680345535 0.30900001525878906
-0.0345875546336174 0.056821297854185104 0.30800002813339233
-0.03293025493621826 0.05645233020186424 0.3060000240802765
-0.03149754926562309 0.05645233020186424 0.3060000240802765
-0.02996659278869629 0.05626784265041351 0.3050000071525574
-0.02835143357515335 0.05589887127280235 0.30300000309944153
-0.02675500325858593 0.05552990734577179 0.30100002884864807
-0.025177298113703728 0.05516093596816063 0.2990000247955322
-0.023618320003151894 0.05479196459054947 0.2970000207424164
-0.022152911871671677 0.05460747703909874 0.29600000381469727
