ply
format ascii 1.0
element vertex 955
property float x
property float y
property float z
end_header
0.0197208933532238 0.062064629048109055 0.2630000114440918
0.020872602239251137 0.06182864308357239 0.26200002431869507
0.02201494760811329 0.06159265339374542 0.26100000739097595
0.023147931322455406 0.061356671154499054 0.2600000202655792
0.024177836254239082 0.06088469550013542 0.2580000162124634
0.025287406519055367 0.06064870208501816 0.25699999928474426
0.026387616991996765 0.06041271984577179 0.25600001215934753
0.02747846022248268 0.06017673388123512 0.2550000250339508
0.02867238037288189 0.06017673388123512 0.2550000250339508
0.029749177396297455 0.05994074419140816 0.2540000081062317
0.030816612765192986 0.05970475822687149 0.25300002098083496
0.03200116753578186 0.05970475822687149 0.25300002098083496
0.03305455297231674 0.059468768537044525 0.25200000405311584
0.03409858047962189 0.05923278257250786 0.2510000169277191
0.0351332351565361 0.05899679288268089 0.25
0.036303747445344925 0.05899679288268089 0.25
0.03732436150312424 0.058760806918144226 0.24900001287460327
0.038490187376737595 0.058760806918144226 0.24900001287460327
0.03965601697564125 0.058760806918144226 0.24900001287460327
0.04098578542470932 0.05899679288268089 0.25
0.04215629771351814 0.05899679288268089 0.25
0.04350011795759201 0.05923278257250786 0.2510000169277191
0.045031286776065826 0.05970475822687149 0.25300002098083496
0.04658119007945061 0.06017673388123512 0.2550000250339508
0.047962456941604614 0.06041271984577179 0.25600001215934753
0.04954513534903526 0.06088469550013542 0.2580000162124634
0.0509498156607151 0.06112067773938179 0.2590000033378601
0.05236386880278587 0.061356671154499054 0.2600000202655792
0.05378727614879608 0.06159265339374542 0.26100000739097595
0.05522005259990692 0.06182864308357239 0.26200002431869507
0.056662194430828094 0.062064629048109055 0.2630000114440918
0.05833382532000542 0.06253660470247269 0.26500001549720764
0.059574566781520844 0.06253660470247269 0.26500001549720764
0.06081530824303627 0.06253660470247269 0.26500001549720764
0.061821866780519485 0.06230061128735542 0.2639999985694885
0.06329678744077682 0.06253660470247269 0.26500001549720764
0.0647810623049736 0.06277258694171906 0.26600000262260437
0.06652292609214783 0.06324456632137299 0.2680000066757202
0.06828352063894272 0.06371653825044632 0.27000001072883606
0.06980525702238083 0.06395252794027328 0.2710000276565552
0.07133635133504868 0.06418851763010025 0.2720000147819519
0.07287681847810745 0.06442449986934662 0.27300000190734863
0.07442664355039597 0.06466048955917358 0.27400001883506775
0.07626214623451233 0.06513246148824692 0.2760000228881836
0.07783538103103638 0.06536845117807388 0.2770000100135803
0.07941799610853195 0.06560444086790085 0.27800002694129944
0.08071959763765335 0.06560444086790085 0.27800002694129944
0.08231624215841293 0.06584042310714722 0.27900001406669617
0.08392224460840225 0.06607640534639359 0.2800000011920929
0.0855376273393631 0.06631240248680115 0.281000018119812
0.08716236799955368 0.06654838472604752 0.28200000524520874
0.08848270028829575 0.06654838472604752 0.28200000524520874
0.08980304002761841 0.06654838472604752 0.28200000524520874
0.09080024063587189 0.06631240248680115 0.281000018119812
0.09211589395999908 0.06631240248680115 0.281000018119812
0.0 0.0 0.0
0.08968952298164368 0.06277258694171906 0.26600000262260437
0.09127680957317352 0.06300857663154602 0.2670000195503235
0.09287344664335251 0.06324456632137299 0.2680000066757202
0.09412823617458344 0.06324456632137299 0.2680000066757202
0.09573893994092941 0.06348055601119995 0.26900002360343933
0.09771958738565445 0.06395252794027328 0.2710000276565552
0.09935368597507477 0.06418851763010025 0.2720000147819519
0.10099714994430542 0.06442449986934662 0.27300000190734863
0.102649986743927 0.06466048955917358 0.27400001883506775
0.10393287241458893 0.06466048955917358 0.27400001883506775
0.10521574318408966 0.06466048955917358 0.27400001883506775
0.10688730329275131 0.06489647179841995 0.2750000059604645
0.10896158963441849 0.06536845117807388 0.2770000100135803
0.11105461418628693 0.06584042310714722 0.27900001406669617
0.11356908082962036 0.06654838472604752 0.28200000524520874
0.11651904881000519 0.06749233603477478 0.28600001335144043
0.11909438669681549 0.06820029020309448 0.289000004529953
0.1216978207230568 0.06890825927257538 0.29200002551078796
0.12475079298019409 0.06985220313072205 0.29600000381469727
0.12826737761497498 0.07103214412927628 0.30100002884864807
0.13139992952346802 0.07197608798742294 0.3050000071525574
0.13456997275352478 0.07292003929615021 0.30900001525878906
0.13645689189434052 0.07315602153539658 0.3100000023841858
0.0 0.0 0.0
0.13980932533740997 0.07339201122522354 0.3110000193119049
0.0 0.0 0.0
0.0 0.0 0.0
0.0 0.0 0.0
0.0 0.0 0.0
0.0 0.0 0.0
0.0 0.0 0.0
0.0 0.0 0.0
0.17142538726329803 0.08306749165058136 0.35200002789497375
0.17405684292316437 0.0835394561290741 0.3540000021457672
0.1762106567621231 0.08377545326948166 0.35500001907348633
0.17837382853031158 0.08401143550872803 0.35600000619888306
0.180040642619133 0.08401143550872803 0.35600000619888306
0.18221785128116608 0.08424742519855499 0.3570000231266022
0.18388934433460236 0.08424742519855499 0.3570000231266022
0.18556082248687744 0.08424742519855499 0.3570000231266022
0.18723233044147491 0.08424742519855499 0.3570000231266022
0.1889038234949112 0.08424742519855499 0.3570000231266022
0.19217675924301147 0.08495538681745529 0.36000001430511475
0.19386230409145355 0.08495538681745529 0.36000001430511475
0.19609102606773376 0.08519137650728226 0.36100003123283386
0.19613762199878693 0.08448340743780136 0.3580000102519989
0.19781380891799927 0.08448340743780136 0.3580000102519989
0.1989327371120453 0.08424742519855499 0.3570000231266022
0.20004230737686157 0.08401143550872803 0.35600000619888306
0.20114253461360931 0.08377545326948166 0.35500001907348633
0.201662078499794 0.08330347388982773 0.3530000150203705
0.20158696174621582 0.08259551227092743 0.3500000238418579
0.0 0.0 0.0
0.0 0.0 0.0
0.0 0.0 0.0
0.205763041973114 0.08165156841278076 0.3460000157356262
0.2079824060201645 0.08188755065202713 0.34700000286102295
0.2096070647239685 0.08188755065202713 0.34700000286102295
0.21123173832893372 0.08188755065202713 0.34700000286102295
0.21285641193389893 0.08188755065202713 0.34700000286102295
0.21386297047138214 0.08165156841278076 0.3460000157356262
0.21797411143779755 0.08259551227092743 0.3500000238418579
0.0 0.0 0.0
0.0 0.0 0.0
0.0 0.0 0.0
0.21811382472515106 0.08023563772439957 0.3400000035762787
0.219705730676651 0.08023563772439957 0.3400000035762787
0.221948504447937 0.08047162741422653 0.3410000205039978
0.2228895127773285 0.08023563772439957 0.3400000035762787
0.22448141872882843 0.08023563772439957 0.3400000035762787
0.2254083901643753 0.0799996554851532 0.33900001645088196
0.22632601857185364 0.07976367324590683 0.33800002932548523
0.22858279943466187 0.0799996554851532 0.33900001645088196
0.2308489829301834 0.08023563772439957 0.3400000035762787
0.23244088888168335 0.08023563772439957 0.3400000035762787
0.2347211092710495 0.08047162741422653 0.3410000205039978
0.23770372569561005 0.08094360679388046 0.34300002455711365
0.24070504307746887 0.0814155787229538 0.3450000286102295
0.24302272498607635 0.08165156841278076 0.3460000157356262
0.24605683982372284 0.0821235403418541 0.34800001978874207
0.2491096705198288 0.08259551227092743 0.3500000238418579
0.2514648139476776 0.0828315019607544 0.35100001096725464
0.2531082034111023 0.0828315019607544 0.35100001096725464
0.254751592874527 0.0828315019607544 0.35100001096725464
0.25712546706199646 0.08306749165058136 0.35200002789497375
0.0 0.0 0.0
0.2596817910671234 0.0828315019607544 0.35100001096725464
0.2605806589126587 0.08259551227092743 0.3500000238418579
0.2622193992137909 0.08259551227092743 0.3500000238418579
0.26310423016548157 0.08235952258110046 0.3490000069141388
0.2647382318973541 0.08235952258110046 0.3490000069141388
0.2663722634315491 0.08235952258110046 0.3490000069141388
0.26877427101135254 0.08259551227092743 0.3500000238418579
0.2711855471134186 0.0828315019607544 0.35100001096725464
0.0 0.0 0.0
0.0 0.0 0.0
0.0 0.0 0.0
0.2769678235054016 0.08259551227092743 0.3500000238418579
0.27303439378738403 0.08094360679388046 0.34300002455711365
0.2706368565559387 0.07976367324590683 0.33800002932548523
0.0 0.0 0.0
0.26813146471977234 0.07811176031827927 0.33100003004074097
0.2696812152862549 0.07811176031827927 0.33100003004074097
0.2720503807067871 0.07834774255752563 0.3320000171661377
0.27442893385887146 0.0785837322473526 0.3330000042915344
0.27764561772346497 0.07905570417642593 0.33500000834465027
0.27921411395072937 0.07905570417642593 0.33500000834465027
0.2816207706928253 0.0792916938662529 0.3360000252723694
0.2823510766029358 0.07905570417642593 0.33500000834465027
0.28222450613975525 0.0785837322473526 0.3330000042915344
0.2820792496204376 0.07811176031827927 0.33100003004074097
0.28277209401130676 0.0778757706284523 0.33000001311302185
0.28259405493736267 0.07740379124879837 0.328000009059906
0.2841297388076782 0.07740379124879837 0.328000009059906
0.28566545248031616 0.07740379124879837 0.328000009059906
0.2872011661529541 0.07740379124879837 0.328000009059906
0.28873687982559204 0.07740379124879837 0.328000009059906
0.29027259349823 0.07740379124879837 0.328000009059906
0.29091864824295044 0.077167809009552 0.3270000219345093
0.29334402084350586 0.07740379124879837 0.328000009059906
0.2948797047138214 0.07740379124879837 0.328000009059906
0.2973191440105438 0.07763978838920593 0.3290000259876251
0.2997679114341736 0.0778757706284523 0.33000001311302185
0.30222606658935547 0.07811176031827927 0.33100003004074097
0.30285805463790894 0.0778757706284523 0.33000001311302185
0.0 0.0 0.0
0.0 0.0 0.0
0.0 0.0 0.0
0.0 0.0 0.0
0.0 0.0 0.0
0.0 0.0 0.0
0.0 0.0 0.0
0.0 0.0 0.0
0.0 0.0 0.0
0.0 0.0 0.0
0.0 0.0 0.0
0.0 0.0 0.0
0.0 0.0 0.0
0.0 0.0 0.0
0.0 0.0 0.0
-0.0 0.0 0.0
-0.0 0.0 0.0
-0.0 0.0 0.0
-0.0 0.0 0.0
-0.0 0.0 0.0
-0.0 0.0 0.0
-0.0 0.0 0.0
-0.0 0.0 0.0
-0.0 0.0 0.0
-0.0 0.0 0.0
-0.0 0.0 0.0
-0.0 0.0 0.0
-0.0 0.0 0.0
-0.0 0.0 0.0
-0.0 0.0 0.0
-0.0 0.0 0.0
-0.0 0.0 0.0
-0.0 0.0 0.0
-0.0 0.0 0.0
-0.0 0.0 0.0
-0.0 0.0 0.0
-0.0 0.0 0.0
-0.0 0.0 0.0
-0.0 0.0 0.0
-0.0 0.0 0.0
0.0 0.0 0.0
0.0 0.0 0.0
0.0 0.0 0.0
0.0 0.0 0.0
0.0 0.0 0.0
0.0 0.0 0.0
-0.0 0.0 0.0
-0.0 0.0 0.0
-0.0 0.0 0.0
-0.0 0.0 0.0
-0.0 0.0 0.0
-0.0 0.0 0.0
-0.0 0.0 0.0
-0.0 0.0 0.0
-0.0 0.0 0.0
-0.0 0.0 0.0
-0.0 0.0 0.0
-0.0 0.0 0.0
-0.0 0.0 0.0
-0.0 0.0 0.0
0.0 0.0 0.0
-0.0 0.0 0.0
0.0 0.0 0.0
0.0 0.0 0.0
0.0 0.0 0.0
0.0 0.0 0.0
0.0 0.0 0.0
-0.0 0.0 0.0
0.0 0.0 0.0
-0.3121494650840759 0.10156241059303284 0.4220000207424164
-0.30870363116264343 0.10108107328414917 0.42000001668930054
-0.3140404522418976 0.1034877598285675 0.4300000071525574
-0.314929723739624 0.10445044189691544 0.43400001525878906
-0.31650254130363464 0.1056537851691246 0.4390000104904175
-0.3158797025680542 0.10613512247800827 0.4410000145435333
-0.3145265281200409 0.1063757985830307 0.44200003147125244
-0.3117501437664032 0.10613512247800827 0.4410000145435333
-0.30898311734199524 0.10589445382356644 0.4400000274181366
-0.3069230318069458 0.10589445382356644 0.4400000274181366
-0.30417004227638245 0.1056537851691246 0.4390000104904175
-0.3000500798225403 0.1049317792057991 0.4360000193119049
-0.29459118843078613 0.10372843593358994 0.4310000240802765
-0.2878214418888092 0.1020437479019165 0.4240000247955322
-0.28179141879081726 0.1005997285246849 0.4180000126361847
-0.2791648507118225 0.10035906732082367 0.41700002551078796
-0.27588286995887756 0.0998777225613594 0.4150000214576721
-0.27459993958473206 0.10011839121580124 0.41600000858306885
-0.26871973276138306 0.09867437928915024 0.4100000262260437
-0.26549863815307617 0.09819304198026657 0.40800002217292786
-0.2635883688926697 0.09819304198026657 0.40800002217292786
-0.2610366940498352 0.09795236587524414 0.40700000524520874
-0.25913113355636597 0.09795236587524414 0.40700000524520874
-0.25722551345825195 0.09795236587524414 0.40700000524520874
-0.2546926438808441 0.0977117046713829 0.406000018119812
-0.25279170274734497 0.0977117046713829 0.406000018119812
-0.2508907914161682 0.0977117046713829 0.406000018119812
-0.24898989498615265 0.0977117046713829 0.406000018119812
-0.2470889836549759 0.0977117046713829 0.406000018119812
-0.24518808722496033 0.0977117046713829 0.406000018119812
-0.24388639628887177 0.09795236587524414 0.40700000524520874
-0.24198079109191895 0.09795236587524414 0.40700000524520874
-0.24066509306430817 0.09819304198026657 0.40800002217292786
-0.23992517590522766 0.09867437928915024 0.4100000262260437
-0.24148854613304138 0.10011839121580124 0.41600000858306885
-0.2401166409254074 0.10035906732082367 0.41700002551078796
-0.2393064945936203 0.10084040462970734 0.4190000295639038
-0.23734474182128906 0.10084040462970734 0.4190000295639038
-0.2359447181224823 0.10108107328414917 0.42000001668930054
-0.23453538119792938 0.101321741938591 0.42100003361701965
-0.23256422579288483 0.101321741938591 0.42100003361701965
-0.23059308528900146 0.101321741938591 0.42100003361701965
-0.2286219596862793 0.101321741938591 0.42100003361701965
-0.22718916833400726 0.10156241059303284 0.4220000207424164
-0.2257470041513443 0.10180307924747467 0.4230000078678131
-0.22429552674293518 0.1020437479019165 0.4240000247955322
-0.22283464670181274 0.10228441655635834 0.42500001192092896
-0.2208447903394699 0.10228441655635834 0.42500001192092896
-0.2178250104188919 0.10180307924747467 0.4230000078678131
-0.21686503291130066 0.10228441655635834 0.42500001192092896
-0.21133606135845184 0.1005997285246849 0.4180000126361847
-0.2088780552148819 0.10035906732082367 0.41700002551078796
-0.2069256454706192 0.10035906732082367 0.41700002551078796
-0.20546478033065796 0.1005997285246849 0.4180000126361847
-0.20399455726146698 0.10084040462970734 0.4190000295639038
-0.20251496136188507 0.10108107328414917 0.42000001668930054
-0.20007100701332092 0.10084040462970734 0.4190000295639038
-0.1976364105939865 0.1005997285246849 0.4180000126361847
-0.19521118700504303 0.10035906732082367 0.41700002551078796
-0.19325877726078033 0.10035906732082367 0.41700002551078796
-0.19130636751651764 0.10035906732082367 0.41700002551078796
-0.18935395777225494 0.10035906732082367 0.41700002551078796
-0.1869521290063858 0.10011839121580124 0.41600000858306885
-0.1845596879720688 0.0998777225613594 0.4150000214576721
-0.1821766048669815 0.09963706135749817 0.4140000343322754
-0.1793675273656845 0.0991557165980339 0.41200003027915955
-0.17657716572284698 0.09867437928915024 0.4100000262260437
-0.1733795404434204 0.09795236587524414 0.40700000524520874
-0.17105264961719513 0.0977117046713829 0.406000018119812
-0.16873511672019958 0.09747103601694107 0.4050000309944153
-0.16642694175243378 0.09723035991191864 0.40400001406669617
-0.16453538835048676 0.09723035991191864 0.40400001406669617
-0.16264383494853973 0.09723035991191864 0.40400001406669617
-0.1603544056415558 0.0969896987080574 0.40300002694129944
-0.15807431936264038 0.09674902260303497 0.4020000100135803
-0.1561921387910843 0.09674902260303497 0.4020000100135803
-0.15392610430717468 0.09650835394859314 0.4010000228881836
-0.1516694277524948 0.0962676852941513 0.4000000059604645
-0.14979660511016846 0.0962676852941513 0.4000000059604645
-0.1479237973690033 0.0962676852941513 0.4000000059604645
-0.1456858515739441 0.09602701663970947 0.39900001883506775
-0.1438177078962326 0.09602701663970947 0.39900001883506775
-0.1415938287973404 0.09578634798526764 0.398000031709671
-0.13902820646762848 0.09530501067638397 0.3960000276565552
-0.1368277221918106 0.09506434202194214 0.39500001072883606
-0.13463659584522247 0.0948236733675003 0.39400002360343933
-0.13211779296398163 0.09434233605861664 0.3920000195503235
-0.12995009124279022 0.0941016674041748 0.39100003242492676
-0.12779173254966736 0.09386099129915237 0.39000001549720764
-0.12499678134918213 0.09313898533582687 0.38700002431869507
-0.12222989648580551 0.09241697937250137 0.3840000033378601
-0.119804747402668 0.0919356420636177 0.38200002908706665
-0.11739832907915115 0.09145430475473404 0.3800000250339508
-0.11501062661409378 0.09097296744585037 0.37800002098083496
-0.11294123530387878 0.09073229134082794 0.37700000405311584
-0.11088120937347412 0.09049162268638611 0.3760000169277191
-0.10883054882287979 0.09025096148252487 0.3750000298023224
-0.10650371760129929 0.08976961672306061 0.37300002574920654
-0.10447646677494049 0.08952894806861877 0.3720000088214874
-0.10218241065740585 0.08904761075973511 0.3700000047683716
-0.09990707784891129 0.08856627345085144 0.3680000305175781
-0.09765048325061798 0.08808493614196777 0.3660000264644623
-0.09567473083734512 0.08784426003694534 0.36500000953674316
-0.0937083512544632 0.0876035988330841 0.36400002241134644
-0.09149856120347977 0.08712225407361984 0.3620000183582306
-0.08980367332696915 0.08712225407361984 0.3620000183582306
-0.08786537498235703 0.0868815928697586 0.36100003123283386
-0.08569774031639099 0.08640024811029434 0.359000027179718
-0.08378284424543381 0.08615957945585251 0.3580000102519989
-0.08073059469461441 0.08471556752920151 0.35200002789497375
-0.07885783910751343 0.08447489142417908 0.35100001096725464
-0.07633450627326965 0.08351221680641174 0.34700000286102295
-0.07427924126386642 0.08303087949752808 0.3450000286102295
-0.07245331257581711 0.08279021084308624 0.3440000116825104
-0.07043081521987915 0.08230887353420258 0.34200000762939453
-0.06842704117298126 0.08182752877473831 0.3400000035762787
-0.06663858145475388 0.08158686757087708 0.33900001645088196
-0.06466758251190186 0.08110552281141281 0.3370000123977661
-0.0629025250673294 0.08086486160755157 0.3360000252723694
-0.06096430867910385 0.08038351684808731 0.33400002121925354
-0.05904481187462807 0.07990217953920364 0.3320000171661377
-0.05731721222400665 0.07966151088476181 0.33100003004074097
-0.055430490523576736 0.07918017357587814 0.3290000259876251
-0.053562503308057785 0.07869883626699448 0.3270000219345093
-0.05187235772609711 0.07845816016197205 0.32600000500679016
-0.050191573798656464 0.07821749895811081 0.32500001788139343
-0.048520155251026154 0.07797682285308838 0.3240000009536743
-0.04671303555369377 0.07749549299478531 0.32200002670288086
-0.045065026730298996 0.07725481688976288 0.32100000977516174
-0.04329067841172218 0.07677347958087921 0.3190000057220459
-0.04166607931256294 0.07653281092643738 0.31800001859664917
-0.040050849318504333 0.07629214227199554 0.31700000166893005
-0.03844498097896576 0.07605147361755371 0.3160000145435333
-0.03684847801923752 0.07581080496311188 0.3150000274181366
-0.035149041563272476 0.07532946765422821 0.31300002336502075
-0.033468328416347504 0.07484813034534454 0.3110000193119049
-0.031806349754333496 0.07436678558588028 0.30900001525878906
-0.030064845457673073 0.07364477962255478 0.3060000240802765
-0.028445003554224968 0.07316344231367111 0.30400002002716064
-0.026932774111628532 0.07292277365922928 0.30300000309944153
-0.02542991191148758 0.07268210500478745 0.3020000159740448
-0.02393641322851181 0.07244143635034561 0.30100002884864807
-0.022452276200056076 0.07220076769590378 0.30000001192092896
-0.020977506414055824 0.07196009904146194 0.2990000247955322
-0.019512100145220757 0.07171942293643951 0.2980000078678131
-0.018056055530905724 0.07147876173257828 0.2970000207424164
-0.016609376296401024 0.07123808562755585 0.29600000381469727
-0.015172062441706657 0.07099741697311401 0.29500001668930054
-0.013744110241532326 0.07075674831867218 0.2939999997615814
-0.012325525283813477 0.07051607966423035 0.2930000126361847
-0.010878917761147022 0.07003474235534668 0.29100000858306885
-0.00945103820413351 0.06955340504646301 0.289000004529953
-0.008069908246397972 0.06931273639202118 0.2880000174045563
-0.006674803793430328 0.06883139908313751 0.28600001335144043
-0.005317084491252899 0.06859073042869568 0.2850000262260437
-0.003968727774918079 0.06835005432367325 0.2840000092983246
-0.002629736205562949 0.06810939311981201 0.28300002217292786
-0.001300108153373003 0.06786871701478958 0.28200000524520874
2.0155579477432184e-05 0.06762804836034775 0.281000018119812
0.0013310551876202226 0.06738737970590591 0.2800000011920929
0.0026325909420847893 0.06714671105146408 0.27900001406669617
0.003910644445568323 0.06666537374258041 0.2770000100135803
0.00518877012655139 0.06642470508813858 0.2760000228881836
0.00645753089338541 0.06618403643369675 0.2750000059604645
0.007716928608715534 0.06594336777925491 0.27400001883506775
0.008966960944235325 0.06570269167423248 0.27300000190734863
0.010207630693912506 0.06546203047037125 0.2720000147819519
0.011438935995101929 0.06522136181592941 0.2710000276565552
0.012613984756171703 0.06474002450704575 0.26900002360343933
0.013821879401803017 0.06449934840202332 0.2680000066757202
0.015020409598946571 0.06425867974758148 0.2670000195503235
0.016209576278924942 0.06401801109313965 0.26600000262260437
0.01738937944173813 0.06377734243869781 0.26500001549720764
0.018559817224740982 0.06353666633367538 0.2639999985694885
0.0197208933532238 0.06329600512981415 0.2630000114440918
0.020952267572283745 0.06329600512981415 0.2630000114440918
0.02201494760811329 0.06281466782093048 0.26100000739097595
0.023147931322455406 0.06257399916648865 0.2600000202655792
0.024177836254239082 0.06209265813231468 0.2580000162124634
0.025287406519055367 0.06185198575258255 0.25699999928474426
0.026387616991996765 0.061611320823431015 0.25600001215934753
0.02747846022248268 0.06137065216898918 0.2550000250339508
0.02867238037288189 0.06137065216898918 0.2550000250339508
0.029749177396297455 0.06112997978925705 0.2540000081062317
0.030816612765192986 0.060889314860105515 0.25300002098083496
0.03200116753578186 0.060889314860105515 0.25300002098083496
0.03305455297231674 0.06064864248037338 0.25200000405311584
0.03409858047962189 0.06040797382593155 0.2510000169277191
0.0351332351565361 0.06016730144619942 0.25
0.036303747445344925 0.06016730144619942 0.25
0.03732436150312424 0.05992663651704788 0.24900001287460327
0.038490187376737595 0.05992663651704788 0.24900001287460327
0.03965601697564125 0.05992663651704788 0.24900001287460327
0.04098578542470932 0.06016730144619942 0.25
0.04215629771351814 0.06016730144619942 0.25
0.04350011795759201 0.06040797382593155 0.2510000169277191
0.045031286776065826 0.060889314860105515 0.25300002098083496
0.04658119007945061 0.06137065216898918 0.2550000250339508
0.047962456941604614 0.061611320823431015 0.25600001215934753
0.04954513534903526 0.06209265813231468 0.2580000162124634
0.0509498156607151 0.062333326786756516 0.2590000033378601
0.05236386880278587 0.06257399916648865 0.2600000202655792
0.05378727614879608 0.06281466782093048 0.26100000739097595
0.05522005259990692 0.06305533647537231 0.26200002431869507
0.05644674971699715 0.06305533647537231 0.26200002431869507
0.05767344310879707 0.06305533647537231 0.26200002431869507
0.05912494659423828 0.06329600512981415 0.2630000114440918
0.060126833617687225 0.06305533647537231 0.26200002431869507
0.06135352700948715 0.06305533647537231 0.26200002431869507
0.06258022040128708 0.06305533647537231 0.26200002431869507
0.063806913793087 0.06305533647537231 0.26200002431869507
0.06503361463546753 0.06305533647537231 0.26200002431869507
0.06752481311559677 0.06425867974758148 0.2670000195503235
0.06903249770402908 0.06449934840202332 0.2680000066757202
0.07107409089803696 0.06522136181592941 0.2710000276565552
0.07260987162590027 0.06546203047037125 0.2720000147819519
0.07415501028299332 0.06570269167423248 0.27300000190734863
0.07626214623451233 0.06642470508813858 0.2760000228881836
0.07783538103103638 0.06666537374258041 0.2770000100135803
0.07941799610853195 0.06690604239702225 0.27800002694129944
0.08071959763765335 0.06690604239702225 0.27800002694129944
0.08231624215841293 0.06714671105146408 0.27900001406669617
0.08392224460840225 0.06738737970590591 0.2800000011920929
0.0855376273393631 0.06762804836034775 0.281000018119812
0.08716236799955368 0.06786871701478958 0.28200000524520874
0.0 0.0 0.0
0.0 0.0 0.0
0.0 0.0 0.0
0.08457615971565247 0.06209265813231468 0.2580000162124634
0.08644912391901016 0.06257399916648865 0.2600000202655792
0.08834081143140793 0.06305533647537231 0.26200002431869507
0.09025122225284576 0.06353666633367538 0.2639999985694885
0.09218036383390427 0.06401801109313965 0.26600000262260437
0.09377701580524445 0.06425867974758148 0.2670000195503235
0.09538302570581436 0.06449934840202332 0.2680000066757202
0.09699840843677521 0.06474002450704575 0.26900002360343933
0.09898842126131058 0.06522136181592941 0.2710000276565552
0.10062719881534576 0.06546203047037125 0.2720000147819519
0.10227534174919128 0.06570269167423248 0.27300000190734863
0.10355354845523834 0.06570269167423248 0.27300000190734863
0.10521574318408966 0.06594336777925491 0.27400001883506775
0.10688730329275131 0.06618403643369675 0.2750000059604645
0.10896158963441849 0.06666537374258041 0.2770000100135803
0.11145265400409698 0.06738737970590591 0.2800000011920929
0.11397181451320648 0.06810939311981201 0.28300002217292786
0.11692645400762558 0.06907206028699875 0.28700000047683716
0.11909438669681549 0.06955340504646301 0.289000004529953
0.1216978207230568 0.07027541100978851 0.29200002551078796
0.12475079298019409 0.07123808562755585 0.29600000381469727
0.0 0.0 0.0
0.13139992952346802 0.07340411096811295 0.3050000071525574
0.13456997275352478 0.07436678558588028 0.30900001525878906
0.13645689189434052 0.07460745424032211 0.3100000023841858
0.13835319876670837 0.07484813034534454 0.3110000193119049
0.14025886356830597 0.07508879154920578 0.31200000643730164
0.14262811839580536 0.07557013630867004 0.3140000104904175
0.0 0.0 0.0
0.0 0.0 0.0
0.0 0.0 0.0
0.0 0.0 0.0
0.0 0.0 0.0
0.0 0.0 0.0
0.16996437311172485 0.08399355411529541 0.3490000069141388
0.17209011316299438 0.08423423022031784 0.3500000238418579
0.17422518134117126 0.08447489142417908 0.35100001096725464
0.17586857080459595 0.08447489142417908 0.35100001096725464
0.17751197516918182 0.08447489142417908 0.35100001096725464
0.17966578900814056 0.08471556752920151 0.35200002789497375
0.1813138723373413 0.08471556752920151 0.35200002789497375
0.18296194076538086 0.08471556752920151 0.35200002789497375
0.18513448536396027 0.08495623618364334 0.3530000150203705
0.18625810742378235 0.08471556752920151 0.35200002789497375
0.1884399950504303 0.08495623618364334 0.3530000150203705
0.1900927573442459 0.08495623618364334 0.3530000150203705
0.19174550473690033 0.08495623618364334 0.3530000150203705
0.19285041093826294 0.08471556752920151 0.35200002789497375
0.19394594430923462 0.08447489142417908 0.35100001096725464
0.1955893188714981 0.08447489142417908 0.35100001096725464
0.19667081534862518 0.08423423022031784 0.3500000238418579
0.19717633724212646 0.08375288546085358 0.34800001978874207
0.1976631134748459 0.08327154815196991 0.3460000157356262
0.19870714843273163 0.08303087949752808 0.3450000286102295
0.19974179565906525 0.08279021084308624 0.3440000116825104
0.2001817673444748 0.08230887353420258 0.34200000762939453
0.20178303122520447 0.08230887353420258 0.34200000762939453
0.2039789855480194 0.08254954218864441 0.34300002455711365
0.20558492839336395 0.08254954218864441 0.34300002455711365
0.2077949047088623 0.08279021084308624 0.3440000116825104
0.20940552651882172 0.08279021084308624 0.3440000116825104
0.21040275692939758 0.08254954218864441 0.34300002455711365
0.21139056980609894 0.08230887353420258 0.34200000762939453
0.21174626052379608 0.08182752877473831 0.3400000035762787
0.21020081639289856 0.08062418550252914 0.33500000834465027
0.20987287163734436 0.07990217953920364 0.3320000171661377
0.21206414699554443 0.08014284819364548 0.3330000042915344
0.21426478028297424 0.08038351684808731 0.33400002121925354
0.2164747714996338 0.08062418550252914 0.33500000834465027
0.2180432379245758 0.08062418550252914 0.33500000834465027
0.2196117341518402 0.08062418550252914 0.33500000834465027
0.2205199897289276 0.08038351684808731 0.33400002121925354
0.22208377718925476 0.08038351684808731 0.33400002121925354
0.22498680651187897 0.08086486160755157 0.3360000252723694
0.22588565945625305 0.08062418550252914 0.33500000834465027
0.22745415568351746 0.08062418550252914 0.33500000834465027
0.22902263700962067 0.08062418550252914 0.33500000834465027
0.23059111833572388 0.08062418550252914 0.33500000834465027
0.23285262286663055 0.08086486160755157 0.3360000252723694
0.2358211725950241 0.08134619891643524 0.33800002932548523
0.23880845308303833 0.08182752877473831 0.3400000035762787
0.0 0.0 0.0
0.24839791655540466 0.08399355411529541 0.3490000069141388
0.0 0.0 0.0
0.0 0.0 0.0
0.0 0.0 0.0
0.0 0.0 0.0
0.0 0.0 0.0
0.0 0.0 0.0
0.2598361372947693 0.08399355411529541 0.3490000069141388
0.26072099804878235 0.08375288546085358 0.34800001978874207
0.2623503506183624 0.08375288546085358 0.34800001978874207
0.2639796733856201 0.08375288546085358 0.34800001978874207
0.2648457884788513 0.08351221680641174 0.34700000286102295
0.26723840832710266 0.08375288546085358 0.34800001978874207
0.0 0.0 0.0
0.0 0.0 0.0
0.0 0.0 0.0
0.0 0.0 0.0
0.0 0.0 0.0
0.0 0.0 0.0
0.2602277398109436 0.07821749895811081 0.32500001788139343
0.26174938678741455 0.07821749895811081 0.32500001788139343
0.2632710635662079 0.07821749895811081 0.32500001788139343
0.26560744643211365 0.07845816016197205 0.32600000500679016
0.2679532468318939 0.07869883626699448 0.3270000219345093
0.2711324989795685 0.07918017357587814 0.3290000259876251
0.2743304669857025 0.07966151088476181 0.33100003004074097
0.277547150850296 0.08014284819364548 0.3330000042915344
0.27994444966316223 0.08038351684808731 0.33400002121925354
0.28066539764404297 0.08014284819364548 0.3330000042915344
0.2796819508075714 0.07942084223031998 0.33000001311302185
0.2795226275920868 0.07893950492143631 0.328000009059906
0.2776307761669159 0.07797682285308838 0.3240000009536743
0.27914777398109436 0.07797682285308838 0.3240000009536743
0.28066474199295044 0.07797682285308838 0.3240000009536743
0.2821817398071289 0.07797682285308838 0.3240000009536743
0.283698707818985 0.07797682285308838 0.3240000009536743
0.28521567583084106 0.07797682285308838 0.3240000009536743
0.28761768341064453 0.07821749895811081 0.32500001788139343
0.2891393303871155 0.07821749895811081 0.32500001788139343
0.2906610071659088 0.07821749895811081 0.32500001788139343
0.29218265414237976 0.07821749895811081 0.32500001788139343
0.2946079969406128 0.07845816016197205 0.32600000500679016
0.2979511320590973 0.07893950492143631 0.328000009059906
0.29948684573173523 0.07893950492143631 0.328000009059906
0.29643380641937256 0.07773615419864655 0.3230000138282776
0.0 0.0 0.0
0.0 0.0 0.0
0.0 0.0 0.0
0.0 0.0 0.0
0.0 0.0 0.0
0.0 0.0 0.0
0.0 0.0 0.0
0.0 0.0 0.0
0.0 0.0 0.0
0.0 0.0 0.0
0.0 0.0 0.0
0.0 0.0 0.0
0.0 0.0 0.0
0.0 0.0 0.0
0.0 0.0 0.0
-0.0 0.0 0.0
-0.0 0.0 0.0
-0.0 0.0 0.0
-0.0 0.0 0.0
-0.0 0.0 0.0
-0.0 0.0 0.0
-0.0 0.0 0.0
-0.0 0.0 0.0
-0.0 0.0 0.0
-0.0 0.0 0.0
-0.0 0.0 0.0
-0.0 0.0 0.0
-0.0 0.0 0.0
-0.0 0.0 0.0
-0.0 0.0 0.0
-0.0 0.0 0.0
-0.0 0.0 0.0
-0.0 0.0 0.0
-0.0 0.0 0.0
-0.0 0.0 0.0
-0.0 0.0 0.0
-0.0 0.0 0.0
-0.0 0.0 0.0
-0.0 0.0 0.0
-0.0 0.0 0.0
-0.0 0.0 0.0
-0.0 0.0 0.0
-0.0 0.0 0.0
-0.0 0.0 0.0
-0.0 0.0 0.0
-0.0 0.0 0.0
-0.0 0.0 0.0
-0.0 0.0 0.0
-0.0 0.0 0.0
-0.0 0.0 0.0
-0.0 0.0 0.0
-0.0 0.0 0.0
-0.0 0.0 0.0
-0.0 0.0 0.0
-0.0 0.0 0.0
-0.0 0.0 0.0
0.0 0.0 0.0
0.0 0.0 0.0
0.0 0.0 0.0
0.0 0.0 0.0
0.0 0.0 0.0
0.0 0.0 0.0
0.0 0.0 0.0
0.0 0.0 0.0
0.0 0.0 0.0
-0.0 0.0 0.0
-0.0 0.0 0.0
0.0 0.0 0.0
-0.0 0.0 0.0
-0.30401286482810974 0.10083936899900436 0.41100001335144043
-0.3013535439968109 0.10059402137994766 0.4100000262260437
-0.29578229784965515 0.09936726838350296 0.4050000309944153
-0.2924347519874573 0.09887656569480896 0.40300002694129944
-0.28910598158836365 0.09838585555553436 0.4010000228881836
-0.2872284948825836 0.09838585555553436 0.4010000228881836
-0.0 0.0 0.0
-0.0 0.0 0.0
-0.308280885219574 0.10770920664072037 0.4390000104904175
-0.0 0.0 0.0
-0.0 0.0 0.0
-0.0 0.0 0.0
-0.2809210419654846 0.10083936899900436 0.41100001335144043
-0.2776390612125397 0.10034866631031036 0.4090000092983246
-0.27505001425743103 0.10010331869125366 0.40800002217292786
-0.27247023582458496 0.09985796362161636 0.40700000524520874
-0.26923510432243347 0.09936726838350296 0.4050000309944153
-0.2666787803173065 0.09912191331386566 0.40400001406669617
-0.2641318440437317 0.09887656569480896 0.40300002694129944
-0.26224496960639954 0.09887656569480896 0.40300002694129944
-0.26100414991378784 0.09912191331386566 0.40400001406669617
-0.2597539722919464 0.09936726838350296 0.4050000309944153
-0.2578577697277069 0.09936726838350296 0.4050000309944153
-0.255961537361145 0.09936726838350296 0.4050000309944153
-0.25406530499458313 0.09936726838350296 0.4050000309944153
-0.2515464425086975 0.09912191331386566 0.40400001406669617
-0.2496548742055893 0.09912191331386566 0.40400001406669617
-0.24776335060596466 0.09912191331386566 0.40400001406669617
-0.24587179720401764 0.09912191331386566 0.40400001406669617
-0.2439802587032318 0.09912191331386566 0.40400001406669617
-0.2420887053012848 0.09912191331386566 0.40400001406669617
-0.2407917082309723 0.09936726838350296 0.4050000309944153
-0.2388955056667328 0.09936726838350296 0.4050000309944153
-0.2375844419002533 0.09961261600255966 0.406000018119812
-0.23568354547023773 0.09961261600255966 0.406000018119812
-0.23320680856704712 0.09936726838350296 0.4050000309944153
-0.23188170790672302 0.09961261600255966 0.406000018119812
-0.22998081147670746 0.09961261600255966 0.406000018119812
-0.22920344769954681 0.10010331869125366 0.40800002217292786
-0.2284073680639267 0.10059402137994766 0.4100000262260437
-0.2270401269197464 0.10083936899900436 0.41100001335144043
-0.22675898671150208 0.10157542675733566 0.4140000343322754
-0.22482064366340637 0.10157542675733566 0.4140000343322754
-0.22395898401737213 0.10206612199544907 0.41600000858306885
-0.22307860851287842 0.10255682468414307 0.4180000126361847
-0.22165054082870483 0.10280217975378036 0.4190000295639038
-0.21968874335289001 0.10280217975378036 0.4190000295639038
-0.21720734238624573 0.10255682468414307 0.4180000126361847
-0.2137053906917572 0.10182077437639236 0.4150000214576721
-0.21125206351280212 0.10157542675733566 0.4140000343322754
-0.20779694616794586 0.10083936899900436 0.41100001335144043
-0.20587261021137238 0.10083936899900436 0.41100001335144043
-0.20146717131137848 0.09961261600255966 0.406000018119812
-0.2030070722103119 0.10133007168769836 0.4130000174045563
-0.20156025886535645 0.10157542675733566 0.4140000343322754
-0.2010684311389923 0.10231147706508636 0.41700002551078796
-0.1952960193157196 0.10034866631031036 0.4090000092983246
-0.19338107109069824 0.10034866631031036 0.4090000092983246
-0.19380679726600647 0.10157542675733566 0.4140000343322754
-0.19140496850013733 0.10133007168769836 0.4130000174045563
-0.19038882851600647 0.10182077437639236 0.4150000214576721
-0.1884457767009735 0.10182077437639236 0.4150000214576721
-0.18650272488594055 0.10182077437639236 0.4150000214576721
-0.18367023766040802 0.10133007168769836 0.4130000174045563
-0.18041644990444183 0.10059402137994766 0.4100000262260437
-0.1767553687095642 0.09961261600255966 0.406000018119812
-0.17399311065673828 0.09912191331386566 0.40400001406669617
-0.17124956846237183 0.09863121062517166 0.4020000100135803
-0.16726084053516388 0.09740445017814636 0.3970000147819519
-0.16540206968784332 0.09740445017814636 0.3970000147819519
-0.16354329884052277 0.09740445017814636 0.3970000147819519
-0.16209179162979126 0.09764980524778366 0.398000031709671
-0.16063092648983002 0.09789515286684036 0.39900001883506775
-0.15876279771327972 0.09789515286684036 0.39900001883506775
-0.15689465403556824 0.09789515286684036 0.39900001883506775
-0.15502652525901794 0.09789515286684036 0.39900001883506775
-0.15277452766895294 0.09764980524778366 0.398000031709671
-0.15091107785701752 0.09764980524778366 0.398000031709671
-0.1486731320619583 0.09740445017814636 0.3970000147819519
-0.14681436121463776 0.09740445017814636 0.3970000147819519
-0.14459046721458435 0.09715910255908966 0.3960000276565552
-0.14273637533187866 0.09715910255908966 0.3960000276565552
-0.14052651822566986 0.09691374748945236 0.39500001072883606
-0.13797496259212494 0.09642304480075836 0.3930000066757202
-0.13578853011131287 0.09617769718170166 0.3920000195503235
-0.13361144065856934 0.09593234956264496 0.39100003242492676
-0.13144372403621674 0.09568699449300766 0.39000001549720764
-0.1289530247449875 0.09519629180431366 0.3880000114440918
-0.12680873274803162 0.09495094418525696 0.38700002431869507
-0.12435080111026764 0.09446024149656296 0.3850000202655792
-0.12191159278154373 0.09396953135728836 0.3830000162124634
-0.11949112266302109 0.09347882866859436 0.38100001215934753
-0.11708937585353851 0.09298812597990036 0.3790000081062317
-0.1147063672542572 0.09249742329120636 0.37700000405311584
-0.11264166235923767 0.09225207567214966 0.3760000169277191
-0.11058631539344788 0.09200672805309296 0.3750000298023224
-0.10854033380746841 0.09176137298345566 0.37400001287460327
-0.10621818155050278 0.09127067029476166 0.3720000088214874
-0.10419561713933945 0.09102532267570496 0.3710000216960907
-0.10190624743700027 0.09053461998701096 0.36900001764297485
-0.09990707784891129 0.09028927236795425 0.3680000305175781
-0.09765048325061798 0.08979856222867966 0.3660000264644623
-0.09567473083734512 0.08955320715904236 0.36500000953674316
-0.0937083512544632 0.08930785953998566 0.36400002241134644
-0.09175131469964981 0.08906250447034836 0.3630000054836273
-0.08980367332696915 0.08881715685129166 0.3620000183582306
-0.08786537498235703 0.08857180923223495 0.36100003123283386
-0.08569774031639099 0.08808110654354095 0.359000027179718
-0.08378284424543381 0.08783575147390366 0.3580000102519989
-0.08073059469461441 0.08636365085840225 0.35200002789497375
-0.07863318175077438 0.08587294816970825 0.3500000238418579
-0.07633450627326965 0.08513688296079636 0.34700000286102295
-0.07427924126386642 0.08464618772268295 0.3450000286102295
-0.07245331257581711 0.08440083265304565 0.3440000116825104
-0.07063675671815872 0.08415548503398895 0.34300002455711365
-0.06862830370664597 0.08366478234529495 0.3410000205039978
-0.06683515012264252 0.08341942727565765 0.3400000035762787
-0.06485947966575623 0.08292873203754425 0.33800002932548523
-0.0629025250673294 0.08243802934885025 0.3360000252723694
-0.06096430867910385 0.08194732666015625 0.33400002121925354
-0.05904481187462807 0.08145662397146225 0.3320000171661377
-0.05714404582977295 0.08096591383218765 0.33000001311302185
-0.055430490523576736 0.08072056621313095 0.3290000259876251
-0.053562503308057785 0.08022986352443695 0.3270000219345093
-0.05187235772609711 0.07998450845479965 0.32600000500679016
-0.050191573798656464 0.07973916083574295 0.32500001788139343
-0.048520155251026154 0.07949380576610565 0.3240000009536743
-0.04671303555369377 0.07900311052799225 0.32200002670288086
-0.045065026730298996 0.07875775545835495 0.32100000977516174
-0.04329067841172218 0.07826705276966095 0.3190000057220459
-0.04166607931256294 0.07802170515060425 0.31800001859664917
-0.040050849318504333 0.07777635008096695 0.31700000166893005
-0.03844498097896576 0.07753100246191025 0.3160000145435333
-0.03684847801923752 0.07728565484285355 0.3150000274181366
-0.035149041563272476 0.07679495215415955 0.31300002336502075
-0.03357594460248947 0.07654958963394165 0.31200000643730164
-0.03190927952528 0.07605888694524765 0.3100000023841858
-0.030163094401359558 0.07532283663749695 0.3070000112056732
-0.028538571670651436 0.07483213394880295 0.3050000071525574
-0.026932774111628532 0.07434143126010895 0.30300000309944153
-0.02542991191148758 0.07409608364105225 0.3020000159740448
-0.02393641322851181 0.07385073602199554 0.30100002884864807
-0.022452276200056076 0.07360538095235825 0.30000001192092896
-0.020977506414055824 0.07336003333330154 0.2990000247955322
-0.019512100145220757 0.07311467826366425 0.2980000078678131
-0.018056055530905724 0.07286933064460754 0.2970000207424164
-0.016609376296401024 0.07262397557497025 0.29600000381469727
-0.015172062441706657 0.07237862795591354 0.29500001668930054
-0.013744110241532326 0.07213326543569565 0.2939999997615814
-0.012283459305763245 0.07164257019758224 0.29200002551078796
-0.010878917761147022 0.07139721512794495 0.29100000858306885
-0.009483741596341133 0.07115186750888824 0.2900000214576721
-0.008069908246397972 0.07066116482019424 0.2880000174045563
-0.006674803793430328 0.07017046213150024 0.28600001335144043
-0.005317084491252899 0.06992511451244354 0.2850000262260437
-0.003968727774918079 0.06967975944280624 0.2840000092983246
-0.002629736205562949 0.06943441182374954 0.28300002217292786
-0.001300108153373003 0.06918905675411224 0.28200000524520874
2.0155579477432184e-05 0.06894370913505554 0.281000018119812
0.0013310551876202226 0.06869835406541824 0.2800000011920929
0.0026325909420847893 0.06845300644636154 0.27900001406669617
0.003910644445568323 0.06796230375766754 0.2770000100135803
0.00518877012655139 0.06771694868803024 0.2760000228881836
0.00645753089338541 0.06747159361839294 0.2750000059604645
0.007716928608715534 0.06722624599933624 0.27400001883506775
0.008966960944235325 0.06698089092969894 0.27300000190734863
0.010170103050768375 0.06649019569158554 0.2710000276565552
0.011396724730730057 0.06624484062194824 0.27000001072883606
0.012613984756171703 0.06599949300289154 0.26900002360343933
0.013821879401803017 0.06575413793325424 0.2680000066757202
0.015020409598946571 0.06550879031419754 0.2670000195503235
0.016209576278924942 0.06526343524456024 0.26600000262260437
0.01738937944173813 0.06501808762550354 0.26500001549720764
0.018559817224740982 0.06477273255586624 0.2639999985694885
0.0197208933532238 0.06452738493680954 0.2630000114440918
0.020872602239251137 0.06428203731775284 0.26200002431869507
0.02201494760811329 0.06403668224811554 0.26100000739097595
0.023147931322455406 0.06379133462905884 0.2600000202655792
0.02427154779434204 0.06354597955942154 0.2590000033378601
0.02538580261170864 0.06330062448978424 0.2580000162124634
0.026387616991996765 0.06280992180109024 0.25600001215934753
0.02758621796965599 0.06280992180109024 0.25600001215934753
0.02867238037288189 0.06256457418203354 0.2550000250339508
0.029749177396297455 0.06231921911239624 0.2540000081062317
0.030816612765192986 0.06207387149333954 0.25300002098083496
0.031874679028987885 0.06182851642370224 0.25200000405311584
0.03305455297231674 0.06182851642370224 0.25200000405311584
0.03409858047962189 0.06158316880464554 0.2510000169277191
0.0351332351565361 0.06133781373500824 0.25
0.036303747445344925 0.06133781373500824 0.25
0.03747425600886345 0.06133781373500824 0.25
0.038490187376737595 0.06109246611595154 0.24900001287460327
0.03965601697564125 0.06109246611595154 0.24900001287460327
0.04082184284925461 0.06109246611595154 0.24900001287460327
0.04215629771351814 0.06133781373500824 0.25
0.04350011795759201 0.06158316880464554 0.2510000169277191
0.045031286776065826 0.06207387149333954 0.25300002098083496
0.04639851301908493 0.06231921911239624 0.2540000081062317
0.047962456941604614 0.06280992180109024 0.25600001215934753
0.04935309663414955 0.06305526942014694 0.25699999928474426
0.05075309798121452 0.06330062448978424 0.2580000162124634
0.05216246470808983 0.06354597955942154 0.2590000033378601
0.05358119681477547 0.06379133462905884 0.2600000202655792
0.05500928685069084 0.06403668224811554 0.26100000739097595
0.05601586028933525 0.06379133462905884 0.2600000202655792
0.057233188301324844 0.06379133462905884 0.2600000202655792
0.058450520038604736 0.06379133462905884 0.2600000202655792
0.05943835526704788 0.06354597955942154 0.2590000033378601
0.06065100058913231 0.06354597955942154 0.2590000033378601
0.061863649636507034 0.06354597955942154 0.2590000033378601
0.06283276528120041 0.06330062448978424 0.2580000162124634
0.06354428827762604 0.06280992180109024 0.25600001215934753
0.06448999047279358 0.06256457418203354 0.2550000250339508
0.06542632728815079 0.06231921911239624 0.2540000081062317
0.06635329872369766 0.06207387149333954 0.25300002098083496
0.06753785908222198 0.06207387149333954 0.25300002098083496
0.06817915290594101 0.06158316880464554 0.2510000169277191
0.06907802820205688 0.06133781373500824 0.25
0.0 0.0 0.0
0.07084770500659943 0.06084711477160454 0.24800001084804535
0.0717184916138649 0.06060176342725754 0.24700000882148743
0.07287494838237762 0.06060176342725754 0.24700000882148743
0.0 0.0 0.0
0.07610108703374863 0.06133781373500824 0.25
0.07788977771997452 0.06182851642370224 0.25200000405311584
0.08001095801591873 0.06256457418203354 0.2550000250339508
0.08152332901954651 0.06280992180109024 0.25600001215934753
0.08272192627191544 0.06280992180109024 0.25600001215934753
0.08424834161996841 0.06305526942014694 0.25699999928474426
0.08578412979841232 0.06330062448978424 0.2580000162124634
0.08732926845550537 0.06354597955942154 0.2590000033378601
0.08956750482320786 0.06428203731775284 0.26200002431869507
0.09148727357387543 0.06477273255586624 0.2639999985694885
0.09342578798532486 0.06526343524456024 0.26600000262260437
0.0950271263718605 0.06550879031419754 0.2670000195503235
0.09663781523704529 0.06575413793325424 0.2680000066757202
0.098257876932621 0.06599949300289154 0.26900002360343933
0.09988728910684586 0.06624484062194824 0.27000001072883606
0.10152608156204224 0.06649019569158554 0.2710000276565552
0.10317423194646835 0.06673554331064224 0.2720000147819519
0.1048317402601242 0.06698089092969894 0.27300000190734863
0.10688730329275131 0.06747159361839294 0.2750000059604645
0.10896158963441849 0.06796230375766754 0.2770000100135803
0.11185070127248764 0.06894370913505554 0.281000018119812
0.11397181451320648 0.06943441182374954 0.28300002217292786
0.11692645400762558 0.07041580975055695 0.28700000047683716
0.11950647830963135 0.07115186750888824 0.2900000214576721
0.12128104269504547 0.07139721512794495 0.29100000858306885
0.12517225742340088 0.07286933064460754 0.2970000207424164
0.0 0.0 0.0
0.13183076679706573 0.07507748901844025 0.3060000240802765
0.13500545918941498 0.07605888694524765 0.3100000023841858
0.13689708709716797 0.07630424201488495 0.3110000193119049
0.1387980580329895 0.07654958963394165 0.31200000643730164
0.14070841670036316 0.07679495215415955 0.31300002336502075
0.14262811839580536 0.07704029977321625 0.3140000104904175
0.14501610398292542 0.07753100246191025 0.3160000145435333
0.14835000038146973 0.07851240783929825 0.320000022649765
0.15078482031822205 0.07900311052799225 0.32200002670288086
0.1541842520236969 0.07998450845479965 0.32600000500679016
0.1571435183286667 0.08072056621313095 0.3290000259876251
0.1635071337223053 0.08317407965660095 0.33900001645088196
0.168990358710289 0.08513688296079636 0.34700000286102295
0.1711067259311676 0.08538223803043365 0.34800001978874207
0.17323243618011475 0.08562759310007095 0.3490000069141388
0.1748664677143097 0.08562759310007095 0.3490000069141388
0.17650051414966583 0.08562759310007095 0.3490000069141388
0.17813453078269958 0.08562759310007095 0.3490000069141388
0.17976857721805573 0.08562759310007095 0.3490000069141388
0.18088282644748688 0.08538223803043365 0.34800001978874207
0.18251217901706696 0.08538223803043365 0.34800001978874207
0.18414153158664703 0.08538223803043365 0.34800001978874207
0.18630468845367432 0.08562759310007095 0.3490000069141388
0.18793873488903046 0.08562759310007095 0.3490000069141388
0.18902957439422607 0.08538223803043365 0.34800001978874207
0.19011105597019196 0.08513688296079636 0.34700000286102295
0.19007807970046997 0.08440083265304565 0.3440000116825104
0.1916886866092682 0.08440083265304565 0.3440000116825104
0.1938612461090088 0.08464618772268295 0.3450000286102295
0.19264353811740875 0.08341942727565765 0.3400000035762787
0.1942354291677475 0.08341942727565765 0.3400000035762787
